# .PCD v0.7 - Point Cloud Data file format
VERSION 0.7
FIELDS x y z intensity normal_x normal_y normal_z curvature
SIZE 4 4 4 4 4 4 4 4
TYPE F F F F F F F F
COUNT 1 1 1 1 1 1 1 1
WIDTH 1030
HEIGHT 1
VIEWPOINT 0 0 0 1 0 0 0
POINTS 1030
DATA ascii
-13.581095 8.1708441 3.6482086 5.8515625 0 0 0 0
-13.243675 8.1948986 3.6622438 16.625 0 0 0 0
-12.729685 8.148756 3.7791028 9.5078125 0 0 0 0
-10.41767 8.2418594 3.8957508 2.5 0 0 0 0
-10.040224 8.1184807 3.854948 7 0 0 0 0
-9.4576187 8.2113714 3.8440347 2.5 0 0 0 0
-9.0773201 8.2434692 3.7964015 2.1549668 0 0 0 0
-8.909833 8.1968956 3.7771974 5.9888248 0 0 0 0
-8.5345497 8.2053986 3.7381549 5.1992583 0 0 0 0
-8.2188234 8.2387733 3.684298 3.29985 0 0 0 0
-8.0120621 8.2016888 3.6745179 5.6175461 0 0 0 0
-7.6242332 8.1789608 3.6546607 12.734074 0 0 0 0
-7.388588 8.2518311 3.6302261 5.2557116 0 0 0 0
-7.0802937 8.1358585 3.6092484 16.723129 0 0 0 0
-6.8647094 8.1702452 3.6150277 16 0 0 0 0
-6.4802694 8.1042633 3.6070638 10 0 0 0 0
-4.2976327 8.2235403 3.7782004 18.8125 0 0 0 0
-4.1580133 8.306263 3.702678 9.375 0 0 0 0
-2.0364141 8.2778225 3.8711028 9.25 0 0 0 0
-1.7285609 8.2921104 3.7920742 9.5 0 0 0 0
-1.3839166 8.2928762 3.7594075 24.9035 0 0 0 0
-1.1146533 8.3023577 3.7307167 27.1875 0 0 0 0
-0.84295607 8.2951069 3.7401032 20.03125 0 0 0 0
-0.52957463 8.2971363 3.8119168 33.5 0 0 0 0
-0.10052735 8.3006458 3.7066984 20.3125 0 0 0 0
0.082914419 8.317028 3.7352967 20 0 0 0 0
0.44033191 8.3117714 3.7290421 23.125 0 0 0 0
1.9117646 8.3234005 3.7427335 26.088867 0 0 0 0
2.2381282 8.3102312 3.7002861 31.96875 0 0 0 0
2.6204534 8.2047749 3.8440115 26.677864 0 0 0 0
2.8599706 8.2017899 3.8554187 24.336946 0 0 0 0
3.206212 8.269268 3.7719991 29.05714 0 0 0 0
3.4373946 8.3137398 3.7684112 26.36009 0 0 0 0
3.7012858 8.2407169 3.7536809 25.488873 0 0 0 0
4.0632534 8.2877712 3.6668518 20.966513 0 0 0 0
4.3447237 8.2049246 3.6948714 25.735325 0 0 0 0
4.6589537 8.2869701 3.6338158 16.862497 0 0 0 0
5.015563 8.3024673 3.6172352 25.805721 0 0 0 0
5.1508474 8.262888 3.6174507 24 0 0 0 0
-16.287823 8.5136604 3.7543347 2.5 0 0 0 0
-16.066645 8.5640125 3.7864449 3.2606072 0 0 0 0
-15.806939 8.5245304 3.8914897 14.734375 0 0 0 0
-15.424147 8.5311298 3.852381 11.226562 0 0 0 0
-15.149008 8.5829763 3.8404405 11.652344 0 0 0 0
-14.778814 8.4939213 3.79492 12.289062 0 0 0 0
-14.583971 8.5387421 3.7960749 10.878906 0 0 0 0
-14.161003 8.4817238 3.7152843 7.1259766 0 0 0 0
-14.021135 8.4691067 3.7334189 11.125 0 0 0 0
-13.68522 8.5241795 3.6870794 15.5 0 0 0 0
-13.405604 8.5045242 3.6089292 7 0 0 0 0
-13.032504 8.4847231 3.6859496 19 0 0 0 0
-12.786737 8.4016714 3.8159175 2 0 0 0 0
-2.7631292 8.4404659 3.8592038 2 0 0 0 0
-1.4834485 8.4704647 3.7249694 2 0 0 0 0
2.8811955 8.4325428 3.7816792 38 0 0 0 0
-16.233807 8.8577976 3.6735814 2.375 0 0 0 0
-16.030525 8.7826805 3.8304963 7.0877566 0 0 0 0
-15.724213 8.7658043 3.8615732 9.9375 0 0 0 0
-15.512395 8.8556538 3.8499811 13.25 0 0 0 0
-15.153187 8.8110046 3.8408489 8.0625 0 0 0 0
-14.859194 8.8947725 3.7978349 14.121094 0 0 0 0
-14.455259 8.8027916 3.790772 11 0 0 0 0
-14.125963 8.9320631 3.7192855 14 0 0 0 0
-14.006723 8.8965855 3.7228491 15.75 0 0 0 0
-13.644029 8.7824841 3.668391 8 0 0 0 0
-16.241701 9.253273 3.6835079 4 0 0 0 0
-15.984571 9.1058788 3.8197618 7.8403091 0 0 0 0
-15.814846 9.2464294 3.8700912 8.34375 0 0 0 0
-15.492563 9.1431532 3.8670146 6.7421875 0 0 0 0
-15.201138 9.1539707 3.8396053 11.40625 0 0 0 0
-14.937763 9.1600723 3.8274815 15 0 0 0 0
-14.601956 9.1464567 3.7954583 12.335938 0 0 0 0
-14.297668 9.2399368 3.6744685 4 0 0 0 0
-9.6050148 9.2984467 3.7938502 4 0 0 0 0
-9.4051819 9.2007093 3.8668244 11.607056 0 0 0 0
-9.2857094 9.2406359 3.8743358 29 0 0 0 0
-4.0238647 9.2689209 3.6429732 4.015625 0 0 0 0
-16.231291 9.3978596 3.6457937 3 0 0 0 0
-16.105488 9.420517 3.7229195 3.875 0 0 0 0
-15.844187 9.5357475 3.8791897 15 0 0 0 0
-15.408192 9.3887234 3.8638363 8.625 0 0 0 0
-15.15156 9.3918209 3.8237929 11.75 0 0 0 0
-14.863416 9.3442907 3.7231841 5 0 0 0 0
-10.899179 9.4342175 3.8603983 4.875 0 0 0 0
-10.615893 9.5802002 3.8084316 39 0 0 0 0
-9.6324558 9.5986767 3.6636994 3 0 0 0 0
-9.3979607 9.4529648 3.8291802 27.179441 0 0 0 0
-9.2864752 9.3971872 3.8317847 39.534679 0 0 0 0
-4.0235624 9.3962078 3.6295295 3.7269287 0 0 0 0
-16.247671 9.7680759 3.749244 3.5725098 0 0 0 0
-16.160913 9.7467022 3.7998652 5.6835938 0 0 0 0
-15.65558 9.6339483 3.8421636 9 0 0 0 0
-15.489757 9.7669926 3.8497477 10.75 0 0 0 0
-10.851504 9.8277225 3.6573706 7.25 0 0 0 0
-10.693325 9.6699886 3.7771811 23.660591 0 0 0 0
-9.4044037 9.6938763 3.6413932 22.647541 0 0 0 0
-9.2746391 9.7716579 3.7954593 48.660629 0 0 0 0
-4.0100775 9.7342739 3.7225225 3.1720705 0 0 0 0
-16.296432 9.9676495 3.7183862 5.5625 0 0 0 0
-16.145735 10.102734 3.866684 12.8125 0 0 0 0
-10.610835 10.063624 3.720242 44.429688 0 0 0 0
-9.312891 10.129578 3.6868782 40.171875 0 0 0 0
-9.2903214 10.04952 3.7240529 49.043587 0 0 0 0
-4.0292401 9.9588003 3.7464929 4.0719776 0 0 0 0
-16.251257 10.276097 3.776381 6.765625 0 0 0 0
-10.817257 10.247255 3.6444242 33.5 0 0 0 0
-10.592064 10.416042 3.8663826 47 0 0 0 0
-9.3143425 10.339926 3.7253802 6.8015137 0 0 0 0
-9.2892275 10.307973 3.8149238 13.072428 0 0 0 0
-8.8203316 10.369944 3.8857813 37.460938 0 0 0 0
-4.0291872 10.391188 3.6832228 1.6939816 0 0 0 0
-12.718931 10.793016 3.8977785 13 0 0 0 0
-10.612098 10.562793 3.7313688 37.6875 0 0 0 0
-9.3251553 10.539837 3.6886711 8.3808594 0 0 0 0
-9.2613297 10.575324 3.7287784 10.275126 0 0 0 0
-8.9018936 10.540628 3.8452892 37 0 0 0 0
-4.0323715 10.599448 3.7601676 1.40625 0 0 0 0
-14.283257 11.052547 3.7738345 17.75 0 0 0 0
-14.062808 10.869381 3.8386831 20.625 0 0 0 0
-12.962606 11.038671 3.6142247 20.5 0 0 0 0
-12.736735 10.919485 3.8259904 12.671895 0 0 0 0
-9.3134518 10.851201 3.600364 3 0 0 0 0
-9.2956028 10.844152 3.6372471 45 0 0 0 0
-14.141865 11.222239 3.6799829 39.5 0 0 0 0
-14.06182 11.144918 3.7998204 19 0 0 0 0
-13.263114 11.224521 3.6618056 12.5 0 0 0 0
-12.996771 11.346758 3.6242871 23.125 0 0 0 0
-12.709622 11.263445 3.7888339 14.542772 0 0 0 0
-14.141841 11.518019 3.7782164 24.5 0 0 0 0
-13.875767 11.651686 3.7720814 13.15625 0 0 0 0
-13.573524 11.527095 3.7157211 11.875 0 0 0 0
-13.382048 11.507427 3.6639619 15.049072 0 0 0 0
-13.119194 11.479978 3.6428704 18.51123 0 0 0 0
-12.73324 11.527365 3.737087 18.746235 0 0 0 0
-15.345339 11.887836 3.8208601 7 0 0 0 0
-15.116184 11.767994 3.8557239 14.5 0 0 0 0
-14.928546 11.881683 3.7632663 16 0 0 0 0
-14.536457 11.868692 3.7736316 23 0 0 0 0
-14.194904 11.973361 3.7883444 8.5 0 0 0 0
-13.892947 11.802618 3.7048454 13.578125 0 0 0 0
-13.730665 11.870341 3.715951 14.156738 0 0 0 0
-13.422747 11.909837 3.6615167 19.483841 0 0 0 0
-13.015718 11.887857 3.6522257 23.167969 0 0 0 0
-12.794537 11.812775 3.7169433 23.152548 0 0 0 0
-15.061668 12.039949 3.7716076 12 0 0 0 0
-14.743725 12.167589 3.7623515 14 0 0 0 0
-14.529623 12.15559 3.7824135 4 0 0 0 0
-14.269669 12.088791 3.7316246 7.1171875 0 0 0 0
-14.038331 12.1497 3.7342794 12.588034 0 0 0 0
-13.663248 12.177038 3.6684971 13.565613 0 0 0 0
-13.299219 12.146441 3.6642239 15.260376 0 0 0 0
-12.98634 12.097778 3.6254189 28.9375 0 0 0 0
-12.72879 12.092155 3.73628 22.537291 0 0 0 0
-14.865213 12.510259 3.7956028 16.5 0 0 0 0
-14.500763 12.503155 3.7851386 13.828125 0 0 0 0
-14.216379 12.482285 3.7540765 12.519043 0 0 0 0
-13.874255 12.352044 3.7095814 14.492188 0 0 0 0
-13.623774 12.40004 3.6955042 17.28125 0 0 0 0
-13.29574 12.413858 3.6506939 20.716759 0 0 0 0
-13.077278 12.331275 3.631434 23.267578 0 0 0 0
-12.763163 12.463461 3.7093577 20.576931 0 0 0 0
-15.945709 12.757916 3.8530848 20 0 0 0 0
-15.381149 12.847612 3.8415074 14.5 0 0 0 0
-15.19376 12.803171 3.8350184 15.375 0 0 0 0
-14.844594 12.793966 3.7982569 18.609482 0 0 0 0
-14.50449 12.788347 3.7724209 11.97966 0 0 0 0
-14.256726 12.742186 3.7755561 14.15625 0 0 0 0
-13.940211 12.743835 3.7120457 14.369281 0 0 0 0
-13.710453 12.73707 3.6975346 21.116455 0 0 0 0
-13.399687 12.718477 3.6779752 23.15625 0 0 0 0
-13.068451 12.76989 3.6355374 27.540602 0 0 0 0
-12.728992 12.819863 3.7849822 20.011787 0 0 0 0
-15.976969 12.939799 3.8721476 21 0 0 0 0
-15.529961 13.063676 3.8748584 12.219727 0 0 0 0
-15.100708 13.043402 3.8470159 12.597778 0 0 0 0
-14.895326 13.092642 3.7906723 11.650391 0 0 0 0
-14.494674 13.098383 3.7499094 14.78418 0 0 0 0
-14.205299 13.11585 3.7334414 11.818611 0 0 0 0
-13.932331 12.943665 3.7034717 13.482422 0 0 0 0
-13.740385 13.073921 3.6909871 15.861816 0 0 0 0
-13.401895 13.069858 3.6391904 13.819986 0 0 0 0
-13.115518 13.085007 3.6289124 8.140625 0 0 0 0
-12.742454 12.993111 3.7748184 22.265457 0 0 0 0
-12.052185 13.064402 3.6009297 3 0 0 0 0
-17.346972 13.444216 3.8713005 30 0 0 0 0
-16.090778 13.389845 3.7444539 24.707127 0 0 0 0
-15.695967 13.219639 3.8541632 17.375 0 0 0 0
-15.36898 13.358341 3.824656 10.1875 0 0 0 0
-15.204759 13.34429 3.8040681 10.81958 0 0 0 0
-14.86487 13.268991 3.7791874 10.109131 0 0 0 0
-14.468403 13.390572 3.7293355 9.8242188 0 0 0 0
-14.258005 13.337574 3.7056918 8 0 0 0 0
-13.944195 13.28098 3.7014985 13.601562 0 0 0 0
-13.69907 13.288403 3.6462779 13.829681 0 0 0 0
-13.38113 13.288068 3.6377273 12.368378 0 0 0 0
-13.074247 13.293577 3.6190162 11 0 0 0 0
-12.708374 13.35099 3.682889 11.346619 0 0 0 0
-12.527907 13.415523 3.7259398 11.170607 0 0 0 0
-12.039259 13.410801 3.6528587 13.3125 0 0 0 0
-11.980333 13.345675 3.6665831 8.5 0 0 0 0
-17.40962 13.645392 3.7130699 30 0 0 0 0
-17.388626 13.71023 3.7366705 31.833332 0 0 0 0
-16.073223 13.698036 3.8237472 26.272102 0 0 0 0
-15.723971 13.586637 3.8711352 12.5 0 0 0 0
-15.418756 13.544519 3.8435807 9.5 0 0 0 0
-15.158823 13.65089 3.8339696 12.25 0 0 0 0
-14.799984 13.685303 3.7814517 11.325195 0 0 0 0
-14.503933 13.637181 3.7526207 11.351562 0 0 0 0
-14.208347 13.661206 3.7159402 7.0625 0 0 0 0
-13.948404 13.57661 3.6794934 12.5 0 0 0 0
-13.549104 13.517821 3.6929054 6 0 0 0 0
-13.453562 13.608735 3.6457348 8.75 0 0 0 0
-12.442226 13.607993 3.8777273 8.0096741 0 0 0 0
7.4788208 13.759666 3.7658708 25 0 0 0 0
7.6605091 13.588913 3.6937416 38.8125 0 0 0 0
7.9854951 13.584084 3.6973622 25.75 0 0 0 0
8.1854944 13.575432 3.8026359 5.75 0 0 0 0
8.8930435 13.592848 3.7772093 32.182899 0 0 0 0
9.1462269 13.575969 3.7620182 30.612511 0 0 0 0
9.4243603 13.574928 3.7584577 16.921217 0 0 0 0
9.6516628 13.587156 3.8271646 1.5 0 0 0 0
-17.386765 13.982296 3.6466777 10 0 0 0 0
-16.079914 13.983589 3.7440405 14.692539 0 0 0 0
-15.823103 13.898068 3.8623939 9.28125 0 0 0 0
-15.374877 13.98904 3.8553338 12.039062 0 0 0 0
-15.146145 14.053435 3.8180804 9.5 0 0 0 0
-14.895233 13.922522 3.8110065 13.8125 0 0 0 0
-14.501684 14.008825 3.8145456 14.560547 0 0 0 0
-14.335517 13.946284 3.7471483 13 0 0 0 0
-14.05897 13.909522 3.699291 6 0 0 0 0
7.48386 14.004675 3.7630718 25 0 0 0 0
8.8209858 13.855539 3.8014789 22.595081 0 0 0 0
-17.422113 14.163335 3.8236973 5 0 0 0 0
-16.034523 14.292387 3.8626728 5.7087402 0 0 0 0
-15.687832 14.25901 3.8632152 15.71875 0 0 0 0
-15.466752 14.279829 3.8689928 18.179688 0 0 0 0
-15.203742 14.355822 3.8137097 15.640625 0 0 0 0
-14.847631 14.185912 3.827054 15.8125 0 0 0 0
-14.501808 14.222074 3.7584646 17.253906 0 0 0 0
-14.266195 14.13799 3.7425313 11 0 0 0 0
7.438282 14.233501 3.6783762 7.0625 0 0 0 0
8.6963081 14.281546 3.6759043 3 0 0 0 0
8.7756977 14.21792 3.7417355 7.9228344 0 0 0 0
-16.527277 14.457246 3.895458 12 0 0 0 0
-16.241272 14.583126 3.6778965 3.25 0 0 0 0
-16.025705 14.57937 3.878145 7.4572754 0 0 0 0
-15.795771 14.536839 3.8573532 17.75 0 0 0 0
-15.532627 14.485821 3.7853072 6.1523438 0 0 0 0
-15.139944 14.529708 3.8273165 19.681641 0 0 0 0
-14.952425 14.533793 3.7891095 16 0 0 0 0
-16.02022 14.933953 3.8808322 11.699219 0 0 0 0
-15.756515 14.792821 3.8792794 19.25 0 0 0 0
-15.416441 14.888699 3.8022523 11 0 0 0 0
-15.288288 14.786011 3.8262742 2.5 0 0 0 0
-15.990284 15.044881 3.8839602 16 0 0 0 0
-15.732134 15.003488 3.8188381 11 0 0 0 0
-15.728176 15.369798 3.8926783 5 0 0 0 0
-15.696961 15.71432 3.866534 5 0 0 0 0
-15.553945 15.618786 3.8292038 4 0 0 0 0
15.279152 20.35915 3.7596941 4.5 0 0 0 0
15.275285 20.543278 3.7383797 5 0 0 0 0
15.325809 21.407768 3.7728949 3.5 0 0 0 0
15.316835 22.077908 3.7903492 5 0 0 0 0
15.313267 22.346889 3.7706883 6 0 0 0 0
16.135857 22.712574 3.6389942 7 0 0 0 0
16.172108 23.970127 3.894491 9.5 0 0 0 0
-12.853248 27.534136 3.7716355 33.5 0 0 0 0
-12.881434 28.095005 3.7340703 33.5 0 0 0 0
-12.915279 28.42288 3.643261 23 0 0 0 0
-13.275373 28.733723 3.6469481 29 0 0 0 0
-12.861709 28.656319 3.6932502 26.75 0 0 0 0
-12.868103 28.964821 3.7121906 33.5 0 0 0 0
-12.977175 29.204332 3.6355782 24 0 0 0 0
-12.818086 29.158428 3.8657455 32 0 0 0 0
-13.5383 29.565781 3.6000507 18 0 0 0 0
-13.271093 29.533094 3.6018605 17 0 0 0 0
-13.177652 29.490635 3.6211305 28 0 0 0 0
-12.782317 29.509222 3.7369077 24.71875 0 0 0 0
-13.939438 29.709282 3.6275089 11 0 0 0 0
-13.524337 29.775417 3.6955409 16 0 0 0 0
-12.606273 29.774405 3.6929777 20 0 0 0 0
-12.587646 29.932945 3.7697639 17 0 0 0 0
-12.643082 30.227959 3.6744545 14 0 0 0 0
-12.57398 30.138184 3.6538849 15 0 0 0 0
-13.001413 31.487162 3.6117933 14 0 0 0 0
-12.873631 31.457888 3.8147705 29 0 0 0 0
16.130529 31.444912 3.6877866 10.5 0 0 0 0
-12.827712 31.66412 3.7214296 28.25 0 0 0 0
16.126598 31.561712 3.7945249 10 0 0 0 0
-15.007076 31.941906 3.7940497 22 0 0 0 0
-12.838554 31.915604 3.8115361 24.5 0 0 0 0
-12.796163 32.358601 3.7163229 32 0 0 0 0
-12.807225 32.522617 3.8723991 31.5 0 0 0 0
16.374056 32.594788 3.7181597 9 0 0 0 0
-13.016267 32.772755 3.7387021 24 0 0 0 0
-4.9107594 32.986546 3.658375 13 0 0 0 0
16.064251 32.848045 3.623538 11 0 0 0 0
-13.103314 33.116592 3.6312125 17 0 0 0 0
-12.872348 33.08989 3.684366 34 0 0 0 0
-5.1545558 33.209572 3.7045863 10 0 0 0 0
-4.947587 33.007195 3.7457089 11 0 0 0 0
16.037455 33.018158 3.7641718 12 0 0 0 0
-12.923573 33.319191 3.6788075 26 0 0 0 0
-12.82891 33.555099 3.7224462 29.5 0 0 0 0
-4.2226915 33.376137 3.6563663 10.5 0 0 0 0
-12.946929 34.14632 3.8929284 28 0 0 0 0
-12.819792 34.378311 3.7484388 24 0 0 0 0
-13.024855 34.696381 3.6013587 12 0 0 0 0
-12.867678 34.597599 3.8156016 31 0 0 0 0
-13.01901 35.159557 3.7045641 25 0 0 0 0
-12.802713 35.212399 3.7556188 27.75 0 0 0 0
7.7477322 35.634983 3.8402071 11 0 0 0 0
7.9616551 35.604759 3.7735648 13.625 0 0 0 0
8.1716223 35.606491 3.6786699 18.75 0 0 0 0
8.4599848 35.677475 3.7822492 13 0 0 0 0
8.8792572 35.63221 3.6426389 7.75 0 0 0 0
-14.657417 35.7453 3.72859 16 0 0 0 0
-12.95027 35.886509 3.7625532 30 0 0 0 0
-12.864765 35.804443 3.7485964 22 0 0 0 0
7.0214453 35.747757 3.6940057 17 0 0 0 0
7.7987285 35.841621 3.8834591 11 0 0 0 0
7.8509936 35.749836 3.6555786 12.5 0 0 0 0
8.2970467 35.863197 3.6892996 16.625 0 0 0 0
-12.84941 36.030582 3.7643855 23.5 0 0 0 0
8.5037107 36.163982 3.7059462 14 0 0 0 0
8.872654 36.245491 3.8362205 11.75 0 0 0 0
9.1666183 36.228729 3.7030029 14.5 0 0 0 0
9.5119944 36.227165 3.7896974 13.992188 0 0 0 0
9.7677746 36.206345 3.7516153 15.1875 0 0 0 0
9.9488573 36.099041 3.6986556 24 0 0 0 0
-13.083282 36.324543 3.6143496 17 0 0 0 0
8.713007 36.341385 3.8622777 16.5 0 0 0 0
9.0850105 36.350452 3.8038807 12.375 0 0 0 0
9.4332829 36.442432 3.8606648 10 0 0 0 0
10.8032 36.525288 3.6961515 9 0 0 0 0
-12.962111 36.828461 3.7610364 35 0 0 0 0
10.039963 36.679752 3.6759865 18 0 0 0 0
10.343669 36.776791 3.7705913 13.25 0 0 0 0
10.535925 36.695381 3.7791374 16.5625 0 0 0 0
10.876682 36.731133 3.7292192 10.5 0 0 0 0
11.360156 36.817093 3.8468871 16 0 0 0 0
11.640727 36.642166 3.7035992 11 0 0 0 0
11.705482 36.747597 3.8495038 27 0 0 0 0
12.133944 36.608669 3.8306165 13 0 0 0 0
-12.983736 37.008347 3.7271893 24 0 0 0 0
7.6691365 37.097679 3.8862755 14 0 0 0 0
10.292648 36.937622 3.6755867 11 0 0 0 0
11.035743 36.952232 3.7214179 11.5 0 0 0 0
7.1920066 37.467525 3.8443274 6 0 0 0 0
7.4624 37.441498 3.6477799 17.5 0 0 0 0
-13.009668 37.590214 3.7094355 21 0 0 0 0
-12.764451 37.686829 3.8189204 17.6875 0 0 0 0
7.7681246 37.544014 3.6893592 13 0 0 0 0
-12.644037 37.865349 3.7334483 14.5 0 0 0 0
11.982658 38.689968 3.8548863 16 0 0 0 0
-12.901477 39.500744 3.8572619 18 0 0 0 0
11.205096 39.353786 3.6659214 22 0 0 0 0
-13.069278 39.66684 3.7829618 24 0 0 0 0
-12.94134 41.068672 3.8835161 40 0 0 0 0
-12.869545 40.900448 3.8655188 27 0 0 0 0
-12.814905 41.72121 3.7834306 19 0 0 0 0
-12.873807 42.125092 3.8047287 22 0 0 0 0
-3.1307406 -8.4414253 4.1392202 1.5 0 0 0 0
-1.9076698 -8.4070444 4.048564 1 0 0 0 0
-1.231883 -8.4183826 3.9291394 1 0 0 0 0
-1.0805353 -8.4019661 3.9225402 12 0 0 0 0
-2.9745452 -8.3022203 4.1450458 1 0 0 0 0
-2.3467121 -8.2341251 4.1017656 32.5 0 0 0 0
-1.8541591 -8.2684021 4.0373859 3.173584 0 0 0 0
-1.6789851 -8.2259541 4.0180807 10.542074 0 0 0 0
-1.3110194 -8.3340397 3.9514885 24.733723 0 0 0 0
-1.0444897 -8.2982025 3.9430757 14.4989 0 0 0 0
-0.77071261 -8.2714348 3.9268308 28.213867 0 0 0 0
-0.53249097 -8.1769657 3.9386957 32.5 0 0 0 0
-0.44927582 -7.5993629 4.1647506 19.666666 0 0 0 0
-1.0678538 -7.2891493 4.19663 10 0 0 0 0
-0.45668635 -7.4370856 4.1562781 12 0 0 0 0
-17.479296 -6.2696095 4.121654 7 0 0 0 0
-17.156965 -6.2615733 3.9791467 10.5 0 0 0 0
-16.924576 -6.2434645 4.0257955 11 0 0 0 0
-16.540531 -6.2771106 4.0869508 11 0 0 0 0
-16.250849 -6.2169056 4.1359463 10.25 0 0 0 0
-16.024656 -6.2282438 4.0731792 9.8708801 0 0 0 0
-15.763979 -6.201786 4.0178881 10.35528 0 0 0 0
-15.41988 -6.2033334 4.0392456 9.8830891 0 0 0 0
-15.234582 -6.1985536 4.1147914 11.786038 0 0 0 0
-14.856861 -6.220665 4.0751901 11.067267 0 0 0 0
-14.618518 -6.2050819 4.0969 10.257485 0 0 0 0
-14.21398 -6.2080317 4.0056844 9.9266615 0 0 0 0
-14.000896 -6.2244577 4.032793 7.4786015 0 0 0 0
-12.997736 -6.1808147 4.0614481 6.5 0 0 0 0
-12.849079 -6.148531 4.1448145 17 0 0 0 0
-12.404963 -6.1933451 3.9760599 11.625 0 0 0 0
-12.200603 -6.1971464 3.9398768 2.6726887 0 0 0 0
-11.776165 -6.1910448 3.9825058 9.7086945 0 0 0 0
-11.534151 -6.1649275 3.9653583 13.762297 0 0 0 0
-11.290196 -6.1648979 3.9898975 11.527182 0 0 0 0
-10.945236 -6.1432571 3.9623604 6.7168345 0 0 0 0
-10.646201 -6.1475229 3.9227958 22.177843 0 0 0 0
-10.336024 -6.1247301 3.9106383 21.695038 0 0 0 0
-10.103346 -6.0641823 3.9190476 27.507812 0 0 0 0
-9.8678427 -6.0683398 3.9082322 32 0 0 0 0
-2.7848632 -6.0749474 4.0205007 2 0 0 0 0
-2.4271498 -6.1013274 4.1864133 1 0 0 0 0
-1.6148998 -6.0381451 4.0655818 17.833334 0 0 0 0
-1.337569 -6.0589781 4.0337801 21.375 0 0 0 0
-0.93346691 -6.0233612 4.0360203 34.766666 0 0 0 0
-0.68267566 -6.0436983 4.000711 31.84375 0 0 0 0
-0.47195375 -6.0156074 4.0978394 35.1875 0 0 0 0
-0.13560137 -6.0252991 3.9830809 32.333332 0 0 0 0
0.069600627 -6.0448112 4.0166116 34.958332 0 0 0 0
1.3312373 -6.0139208 3.9827414 30.5 0 0 0 0
-13.729281 -5.8866177 4.0558138 3 0 0 0 0
-12.47151 -5.8661127 3.9482236 2.0724182 0 0 0 0
-12.215156 -5.9817185 4.0024457 15.5 0 0 0 0
-11.722135 -5.932478 4.0122371 31 0 0 0 0
-11.48844 -5.9752069 4.0631175 2 0 0 0 0
-11.235737 -5.9001789 4.0074716 31.1875 0 0 0 0
-10.911161 -5.9478931 4.0061312 27 0 0 0 0
-10.616457 -5.9459543 3.9823174 29.415527 0 0 0 0
-10.302032 -5.8625565 3.9351773 27.162724 0 0 0 0
-10.079658 -5.8788395 3.9094539 31.125 0 0 0 0
-9.797823 -5.8364868 3.9081175 32.25 0 0 0 0
-9.3173637 -5.7162275 3.9096327 1 0 0 0 0
-1.0733726 -5.9423065 4.1655073 34.75 0 0 0 0
-0.7755208 -5.7887211 4.1896062 31.8125 0 0 0 0
-0.40428209 -5.8068128 4.1547461 30.052084 0 0 0 0
-0.13804461 -5.8598003 4.1388197 27.016493 0 0 0 0
0.17775649 -5.8749514 4.0993328 30.414062 0 0 0 0
1.0200868 -5.7619023 4.0113983 31 0 0 0 0
1.3152502 -5.8050275 3.9897871 34.099998 0 0 0 0
1.7668829 -5.7863979 3.9517522 31.25 0 0 0 0
2.0364933 -5.7904949 3.9054961 30.140318 0 0 0 0
2.2379553 -5.8343797 3.9028776 32.5 0 0 0 0
-12.427507 -5.5017672 4.1347947 8.727006 0 0 0 0
-12.252659 -5.5617437 4.1036806 18.298828 0 0 0 0
-11.803804 -5.4190927 4.0758743 4.75 0 0 0 0
-11.419009 -5.4250593 3.9726875 13 0 0 0 0
-11.352515 -5.5035686 3.9621534 37 0 0 0 0
-10.727021 -5.5141625 4.0052118 15.25 0 0 0 0
-10.424297 -5.599021 3.9598746 30.02948 0 0 0 0
-10.008184 -5.5634594 3.931479 24 0 0 0 0
-9.4142532 -5.4744406 3.9006519 4.5 0 0 0 0
-0.8115437 -5.5699015 4.1879334 29.8125 0 0 0 0
-0.52417946 -5.453619 4.1643543 27.130209 0 0 0 0
-0.16821866 -5.5082893 4.1349745 29.25 0 0 0 0
0.14676039 -5.4886074 4.1016564 36.46875 0 0 0 0
0.85223359 -5.4446802 4.028677 28.5 0 0 0 0
1.7483854 -5.6916099 3.9447949 29 0 0 0 0
1.9927329 -5.5047741 3.9088128 31.343517 0 0 0 0
2.1402266 -5.5223932 3.9080474 24.526043 0 0 0 0
-13.757359 -5.3803988 4.1736288 8.75 0 0 0 0
-13.255453 -5.1635499 4.1582289 31 0 0 0 0
-13.173162 -5.3490639 4.1541138 28 0 0 0 0
-12.627406 -5.3417215 4.0965433 7.25 0 0 0 0
-12.400084 -5.2936478 4.1233454 12.735603 0 0 0 0
-12.147264 -5.2726054 4.1146822 18.419861 0 0 0 0
-11.840328 -5.2762918 4.0964546 25.132967 0 0 0 0
-11.540371 -5.2463832 4.0051956 14.355469 0 0 0 0
-11.222492 -5.275176 4.0169115 6.0533857 0 0 0 0
-10.957729 -5.1829309 4.0126467 5.8608599 0 0 0 0
-10.592666 -5.3664355 3.9735463 9.5 0 0 0 0
-10.493139 -5.3179793 3.9328413 1 0 0 0 0
-9.9322367 -5.2668886 3.9534888 1.875 0 0 0 0
-9.8216009 -5.3456764 3.9209409 25.75 0 0 0 0
-9.4314814 -5.3375292 3.9148965 2 0 0 0 0
-9.0320244 -5.3578482 3.90241 1 0 0 0 0
-1.0213954 -5.2820473 4.1905413 33 0 0 0 0
-0.632824 -5.2658596 4.1585469 38.265625 0 0 0 0
-0.36118492 -5.257617 4.1451073 32.770836 0 0 0 0
-0.20826375 -5.275672 4.1382227 29.274822 0 0 0 0
0.085361801 -5.2392268 4.1110001 30.0047 0 0 0 0
0.37136048 -5.2417326 4.0770016 36.875 0 0 0 0
0.70490789 -5.166275 4.0489521 34.5 0 0 0 0
1.137784 -5.2114573 4.0048375 37.0625 0 0 0 0
1.3552821 -5.2481332 3.9822619 36.708336 0 0 0 0
1.7177024 -5.1887231 3.9260054 34.25 0 0 0 0
2.0392914 -5.2205873 3.9057481 35.555084 0 0 0 0
2.1233978 -5.2350988 3.9036846 33.105469 0 0 0 0
-13.344204 -4.9469786 4.1651444 30.5 0 0 0 0
-12.68729 -4.9147482 4.1031961 37.5 0 0 0 0
-12.435148 -4.9917688 4.114398 11.415166 0 0 0 0
-12.08322 -4.8718801 4.1092577 25.999546 0 0 0 0
-11.9056 -4.9596376 4.0883393 36.980286 0 0 0 0
-11.47418 -4.8212943 4.0289631 41.216782 0 0 0 0
-11.326376 -4.9220834 4.0083137 47.027786 0 0 0 0
-10.96944 -4.999238 4.0005493 16.727585 0 0 0 0
-10.763078 -4.8399553 3.9750824 30.259766 0 0 0 0
-10.404729 -4.9145412 3.9598584 20.125 0 0 0 0
-9.9472961 -4.8483734 3.9341123 6.75 0 0 0 0
-9.8783617 -4.8104243 3.9243987 1 0 0 0 0
-9.3932953 -4.9258561 3.903188 2 0 0 0 0
-0.78607178 -4.8876543 4.1920285 30.854168 0 0 0 0
-0.49112788 -4.8725615 4.1586709 35.64492 0 0 0 0
-0.15783569 -4.9922686 4.1314421 36.986435 0 0 0 0
0.19865711 -4.9977713 4.0990639 38.494072 0 0 0 0
0.38044119 -4.976068 4.0839138 35.791016 0 0 0 0
0.74826533 -4.9760752 4.0465384 36.270832 0 0 0 0
1.030457 -4.9519463 4.0034323 38.833336 0 0 0 0
1.3374574 -4.8716321 3.9902599 38.041668 0 0 0 0
1.7526028 -4.8913021 3.9394739 37.73698 0 0 0 0
2.0635891 -4.8957043 3.9075541 36.813206 0 0 0 0
2.1445835 -4.9619732 3.9031568 36.287109 0 0 0 0
2.4087207 -4.9725618 3.9099987 12 0 0 0 0
-12.825299 -4.7777781 4.085413 38.5 0 0 0 0
-12.480509 -4.5237608 4.1135111 36.5 0 0 0 0
-12.194361 -4.7929707 4.1051979 30.5 0 0 0 0
-11.893961 -4.7566257 4.0787482 33.796875 0 0 0 0
-11.47797 -4.6677065 4.0307193 43.09375 0 0 0 0
-11.231711 -4.7555089 4.0205746 39.400124 0 0 0 0
-10.887683 -4.6303329 3.9719136 27.238129 0 0 0 0
-10.655134 -4.7829409 3.9761043 24.585567 0 0 0 0
-10.359371 -4.5797539 3.9473855 34.379478 0 0 0 0
-10.077595 -4.640449 3.9191213 26.28125 0 0 0 0
-9.8016491 -4.7313356 3.9288635 4.1875 0 0 0 0
-9.4766159 -4.7038012 3.9265432 1 0 0 0 0
-0.9360289 -4.5509763 4.1888533 0 0 0 0 0
-0.78240287 -4.57831 4.1887469 33.768806 0 0 0 0
-0.52042979 -4.636786 4.1633797 34.569988 0 0 0 0
-0.19556126 -4.6067195 4.136817 37.149853 0 0 0 0
0.18870875 -4.5875068 4.0984554 21.237984 0 0 0 0
0.449415 -4.5956326 4.078845 38.184174 0 0 0 0
0.74558157 -4.6851897 4.0408273 37.333336 0 0 0 0
1.1282811 -4.6145496 4.0050907 36.979164 0 0 0 0
1.2242348 -4.6474671 3.9966452 37.708336 0 0 0 0
1.7070404 -4.6629543 3.940238 36.379166 0 0 0 0
2.028017 -4.6669302 3.9102726 37.467335 0 0 0 0
2.1336758 -4.5740585 3.9031672 37.260029 0 0 0 0
-11.895817 -4.4033117 4.0974016 27.25 0 0 0 0
-11.426826 -4.3983397 4.0177097 35 0 0 0 0
-11.313967 -4.4867387 4.0025163 21.46875 0 0 0 0
-10.928196 -4.4029083 3.9812007 29.677223 0 0 0 0
-10.608143 -4.3520098 3.9558659 31.319263 0 0 0 0
-10.375561 -4.3001661 3.9529243 32.592926 0 0 0 0
-10.005785 -4.3312249 3.9232967 36.149609 0 0 0 0
-9.867981 -4.3480568 3.9029202 37.25 0 0 0 0
-0.6862123 -4.3918238 4.1822844 31.379181 0 0 0 0
-0.39310682 -4.3553028 4.155858 35.373371 0 0 0 0
-0.076509506 -4.4158835 4.1345911 35.922211 0 0 0 0
0.14044483 -4.2980804 4.1076488 32.664043 0 0 0 0
0.43631804 -4.2906313 4.086422 32.34948 0 0 0 0
0.73750335 -4.3533869 4.0519857 37.15625 0 0 0 0
1.0630392 -4.3836699 4.022068 36.728569 0 0 0 0
1.2825811 -4.3594427 3.99651 38.321426 0 0 0 0
1.6026822 -4.3435783 3.9658799 36.75 0 0 0 0
2.0702364 -4.2778425 3.9131517 35.3428 0 0 0 0
2.1584129 -4.3640909 3.9026949 36.953125 0 0 0 0
-11.07318 -4.1198201 4.0195112 36 0 0 0 0
-10.711981 -4.0174575 3.9543128 38.5 0 0 0 0
-10.396427 -4.1106539 3.944886 33 0 0 0 0
-10.057566 -4.1199536 3.9121099 36.0625 0 0 0 0
-9.8753014 -4.0965762 3.9134107 37 0 0 0 0
-0.65564895 -4.0285211 4.1876516 21.354168 0 0 0 0
-0.46591944 -4.0254474 4.1676188 30.532375 0 0 0 0
-0.068427242 -4.0688524 4.1343479 31.461189 0 0 0 0
0.16801278 -4.0633163 4.1076965 29.554775 0 0 0 0
0.47605196 -4.0475898 4.0868449 28.05596 0 0 0 0
0.6376093 -3.995594 4.0690107 33.269222 0 0 0 0
1.1789997 -4.0959816 4.0098329 37.924309 0 0 0 0
1.2707914 -4.0380797 3.9997389 38.21323 0 0 0 0
1.7007934 -4.1454649 3.9477005 36.263779 0 0 0 0
2.0749259 -4.1344414 3.9151807 37.680054 0 0 0 0
2.1364837 -4.158535 3.9102736 39.004784 0 0 0 0
-13.672614 -3.6602786 4.1809473 22 0 0 0 0
-12.616862 -3.6448882 4.0621171 2 0 0 0 0
-12.570272 -3.6699491 4.0884266 4.625 0 0 0 0
-10.438339 -3.8975623 3.9067323 23.5 0 0 0 0
-9.7180109 -3.8140855 3.9000897 33 0 0 0 0
-0.93537515 -3.7693119 4.1996727 0 0 0 0 0
-0.65387464 -3.7888658 4.18402 26.815739 0 0 0 0
-0.39683759 -3.7120368 4.1647096 33.512268 0 0 0 0
-0.11039121 -3.6914217 4.1337199 35.112553 0 0 0 0
0.17419755 -3.7066708 4.1153746 19.053238 0 0 0 0
0.4572711 -3.8049953 4.0850124 24.459517 0 0 0 0
0.61268723 -3.8685966 4.0712423 32.5 0 0 0 0
1.4078192 -3.8582859 3.9914489 38.5 0 0 0 0
1.691262 -3.8417835 3.9523938 36.426296 0 0 0 0
1.9858119 -3.754385 3.9300117 25.08317 0 0 0 0
2.1564515 -3.7973175 3.9168699 34.170895 0 0 0 0
-13.607807 -3.347734 4.1103845 29 0 0 0 0
-13.486597 -3.5278575 4.1704021 29 0 0 0 0
-13.014894 -3.4108284 4.1321049 40 0 0 0 0
-12.638266 -3.4835355 4.0660505 1.9414062 0 0 0 0
-12.404758 -3.4128723 4.1545753 21.787998 0 0 0 0
-12.127766 -3.3517261 4.1051073 32.693062 0 0 0 0
-11.848742 -3.3839808 4.0960283 35.664368 0 0 0 0
-11.613327 -3.3687057 4.057817 33.324219 0 0 0 0
-11.29644 -3.329731 4.0254211 34.015625 0 0 0 0
-0.98181218 -3.4220181 4.1917763 4 0 0 0 0
-0.72672069 -3.4900403 4.1861687 28.850651 0 0 0 0
-0.40772209 -3.4791248 4.1612587 31.332428 0 0 0 0
-0.19539203 -3.5164204 4.1402626 30.649082 0 0 0 0
0.17641065 -3.4629517 4.1012621 24.627224 0 0 0 0
0.39915109 -3.4303284 4.072927 13.888564 0 0 0 0
0.66448921 -3.3856308 4.0445747 6.942708 0 0 0 0
-13.821656 -3.2360618 4.1611295 12 0 0 0 0
-13.307886 -3.2998385 4.1507959 39.5 0 0 0 0
-13.133058 -3.1264131 4.1409307 38 0 0 0 0
-12.61995 -3.0629187 4.0915346 5.125 0 0 0 0
-12.471666 -3.2232888 4.0911636 12.238102 0 0 0 0
-12.21888 -3.122323 4.1037283 34.765625 0 0 0 0
-11.774076 -3.1606169 4.0804529 33.714401 0 0 0 0
-11.590939 -3.1540742 4.0617609 31.551159 0 0 0 0
-11.314022 -3.2361193 4.0431652 35.355267 0 0 0 0
-11.015337 -3.2395134 3.9907281 33.192673 0 0 0 0
-10.648581 -3.1493697 3.9488738 35.577148 0 0 0 0
-10.361127 -3.043468 3.930316 37.4375 0 0 0 0
-0.97985041 -3.1078904 4.199419 3 0 0 0 0
-0.69407743 -3.1175408 4.1894565 15.242838 0 0 0 0
-0.55178189 -3.1615915 4.1760964 31.066326 0 0 0 0
-0.186279 -3.0669014 4.1419506 32.757744 0 0 0 0
0.077082485 -3.141654 4.1144094 27.474491 0 0 0 0
0.33285198 -3.2592227 4.0997357 25 0 0 0 0
-13.859569 -2.8992372 4.1554756 10 0 0 0 0
-13.650492 -2.8560867 3.9892647 27.5 0 0 0 0
-13.354414 -2.8258598 4.1633735 35 0 0 0 0
-12.662025 -2.9549346 4.0915117 11.75 0 0 0 0
-12.412807 -2.8759091 4.087482 23.360416 0 0 0 0
-12.175463 -2.7968092 4.1120443 30.494614 0 0 0 0
-11.793718 -2.901392 4.0641937 35.585701 0 0 0 0
-11.554656 -2.8128426 4.0483027 33.87796 0 0 0 0
-11.298479 -2.9060266 4.0230079 35.706993 0 0 0 0
-10.885071 -2.8787494 3.9832749 32.359802 0 0 0 0
-10.740207 -2.864954 3.9735689 34.040359 0 0 0 0
-10.343122 -2.8210802 3.9510646 37.116131 0 0 0 0
-9.9594498 -2.7486236 3.9223843 38.49411 0 0 0 0
-9.8253479 -2.8079209 3.9148619 39.21875 0 0 0 0
-9.5863495 -2.7784133 3.9102695 37.25 0 0 0 0
-0.40784472 -2.9649758 4.1530704 24 0 0 0 0
-0.14577997 -2.926435 4.1014519 34.3125 0 0 0 0
0.0099244602 -2.9954207 4.1156902 19 0 0 0 0
-17.156368 -2.6106565 4.0183616 46 0 0 0 0
-15.824418 -2.564661 3.9299455 34.78125 0 0 0 0
-15.344512 -2.4327512 3.913811 18 0 0 0 0
-12.646234 -2.4607058 4.1268206 37.75 0 0 0 0
-12.334753 -2.5285711 4.0512562 33.5 0 0 0 0
-12.217012 -2.4385734 4.0634079 39.91198 0 0 0 0
-11.729205 -2.4995437 4.0928259 42 0 0 0 0
-11.539784 -2.5519123 4.0692711 35.625 0 0 0 0
-11.172116 -2.5516772 4.0016441 39.99707 0 0 0 0
-10.861025 -2.5043547 3.9785247 33.742188 0 0 0 0
-10.684633 -2.5284786 3.9632041 38.984802 0 0 0 0
-10.301645 -2.498378 3.9379804 36.814777 0 0 0 0
-10.040063 -2.5243373 3.9316564 40.375 0 0 0 0
-9.7611504 -2.5424042 3.9070849 40.242188 0 0 0 0
-9.5377846 -2.6324794 3.9001548 36 0 0 0 0
-15.665453 -2.2761827 4.0077448 19.75 0 0 0 0
-15.051388 -2.2413323 4.0752497 13 0 0 0 0
-14.808668 -2.2695374 4.0529814 13.09375 0 0 0 0
-14.580782 -2.2530627 4.0907478 12.328125 0 0 0 0
-14.352579 -2.2089903 3.9365764 19 0 0 0 0
-14.02835 -2.2452645 3.906384 16 0 0 0 0
-13.551102 -2.2387142 4.0137906 16.75 0 0 0 0
-13.286085 -2.2410386 3.98981 17.5 0 0 0 0
-13.015554 -2.249404 3.9942946 22.875 0 0 0 0
-12.349171 -2.2802737 4.0139408 29 0 0 0 0
-12.230918 -2.3392119 4.0626411 37.59375 0 0 0 0
-11.789786 -2.3168874 4.1213818 42 0 0 0 0
-11.549318 -2.347352 4.0592146 33.96875 0 0 0 0
-11.245792 -2.3281827 4.0306439 39.309082 0 0 0 0
-10.971149 -2.2942219 4.0172157 40.976074 0 0 0 0
-10.667088 -2.3362768 3.9861403 36.122803 0 0 0 0
-10.35746 -2.222743 3.9586525 41.95813 0 0 0 0
-10.020964 -2.3433366 3.923594 41.779785 0 0 0 0
-9.6566849 -2.2730734 3.9093447 39.854492 0 0 0 0
-9.5077715 -2.2283838 3.9028757 37 0 0 0 0
-3.0991673 -2.3980994 3.9123442 3 0 0 0 0
-2.5046668 -2.275506 4.0747623 6.5 0 0 0 0
-2.2783592 -2.3128881 4.0197954 4.609375 0 0 0 0
-2.0169373 -2.3006196 3.9373617 10.395752 0 0 0 0
-1.7633212 -2.2659206 3.9361606 22 0 0 0 0
-1.3620907 -2.2531543 3.9138124 20.75 0 0 0 0
-1.1085556 -2.2626221 3.9700241 17.296875 0 0 0 0
-0.86941427 -2.2573056 3.948184 19.815805 0 0 0 0
-11.488255 -1.982747 3.9942346 43.5 0 0 0 0
-11.18544 -1.9009242 3.9810801 40.5 0 0 0 0
-10.893759 -1.9549387 3.9945476 45.125 0 0 0 0
-10.534042 -2.039959 3.9721043 42.234375 0 0 0 0
-10.381517 -1.9928778 3.9572797 40.71875 0 0 0 0
-9.9833794 -2.0445955 3.9269483 40.283203 0 0 0 0
-9.7013407 -2.0054173 3.9127426 38.125 0 0 0 0
-9.5207233 -1.8908408 3.9077559 39 0 0 0 0
-10.343726 -1.7997106 3.9658952 44 0 0 0 0
-9.6850224 -1.7751957 3.9143033 32 0 0 0 0
-2.7763507 0.29090089 3.915025 1 0 0 0 0
-12.630837 1.724542 4.1475616 16 0 0 0 0
-12.210206 1.6555268 4.1435018 41 0 0 0 0
-11.918206 1.5965683 4.0840435 32 0 0 0 0
-11.599218 1.7399385 4.0308104 20.5 0 0 0 0
-11.220592 1.7043127 4.02388 37 0 0 0 0
-10.933583 1.7390777 4.007349 35.5 0 0 0 0
-10.55231 1.7208049 3.9487104 39 0 0 0 0
-10.277037 1.7680738 3.9443841 32 0 0 0 0
-10.034184 1.707453 3.9301026 39.5 0 0 0 0
-9.7582817 1.7694712 3.9048314 2 0 0 0 0
-12.65237 2.0141826 4.1520233 14.25 0 0 0 0
-12.577112 2.0064511 4.1537166 21.5 0 0 0 0
-12.204561 1.9727275 4.145988 36.25 0 0 0 0
-11.875631 1.9557769 4.109375 29.25 0 0 0 0
-11.463819 1.9078151 4.0655499 36.5 0 0 0 0
-11.239574 2.0675004 4.0456314 37 0 0 0 0
-10.914692 2.0147872 4.0074081 37.25 0 0 0 0
-10.577015 2.0530145 3.9813991 34 0 0 0 0
-10.316399 1.9841628 3.9225056 35.125 0 0 0 0
-10.185408 2.0252249 3.9351559 35 0 0 0 0
-9.741581 2.0023072 3.9069257 36.375 0 0 0 0
-15.86398 2.3201671 4.0461721 88.4375 0 0 0 0
-12.744625 2.1988201 4.1164804 4.625 0 0 0 0
-12.47628 2.3025112 4.1480236 30.9375 0 0 0 0
-12.070225 2.2646875 4.1182051 32.458336 0 0 0 0
-11.766851 2.2897766 4.0698147 37.945312 0 0 0 0
-11.552117 2.2152853 4.0554342 35.125 0 0 0 0
-11.197359 2.1766543 4.0090227 35.125 0 0 0 0
-10.956978 2.3600669 4.0205526 34.109375 0 0 0 0
-10.631704 2.2359133 3.9653172 34.884117 0 0 0 0
-10.411467 2.21578 3.9339757 39.512695 0 0 0 0
-10.076374 2.2687445 3.9138453 38.1875 0 0 0 0
-9.8281918 2.2711749 3.91785 39.625 0 0 0 0
-9.4344521 2.1801641 3.9013515 34 0 0 0 0
-15.866791 2.5929909 4.0751076 72.789062 0 0 0 0
-12.704058 2.5026402 4.1295838 9.3945312 0 0 0 0
-12.408293 2.5572634 4.1342878 26.647461 0 0 0 0
-12.181223 2.6080794 4.1208034 29.804688 0 0 0 0
-11.908028 2.5901752 4.0954971 24.691406 0 0 0 0
-11.611309 2.5223522 4.058434 30.703125 0 0 0 0
-11.170109 2.5055623 4.0081501 37.289062 0 0 0 0
-10.942591 2.6038389 3.9942377 19.119793 0 0 0 0
-10.601803 2.6132452 3.9849823 31.120117 0 0 0 0
-10.39781 2.5214686 3.9427769 34.820312 0 0 0 0
-10.075459 2.4668834 3.9328661 27.9375 0 0 0 0
-9.8480244 2.5523906 3.9180019 30.8125 0 0 0 0
-9.4444218 2.6076694 3.9497991 2 0 0 0 0
-1.0758195 2.6707568 4.1207275 23.791668 0 0 0 0
-0.81597614 2.6677191 4.1897664 2.5 0 0 0 0
-15.903084 2.770714 4.1203861 76 0 0 0 0
-15.85358 2.8964834 4.044817 70.48613 0 0 0 0
-12.741312 2.7971015 4.1295023 5.546875 0 0 0 0
-12.378672 2.9426069 4.1441913 31.356934 0 0 0 0
-12.076601 2.8877945 4.1099615 34.0625 0 0 0 0
-11.796572 2.9238193 4.0701523 36.895996 0 0 0 0
-11.539806 2.9352529 4.0699477 36.575928 0 0 0 0
-11.2435 2.830049 4.0457888 33.871063 0 0 0 0
-10.927306 2.9398046 4.0098915 35.045197 0 0 0 0
-10.62252 2.9233491 3.980166 33.365753 0 0 0 0
-10.389067 2.9273605 3.9572222 34.811485 0 0 0 0
-10.135416 2.8996942 3.92207 35.793266 0 0 0 0
-9.8572121 2.9215095 3.9060478 33.223961 0 0 0 0
-3.4497643 2.9549136 3.9991829 22 0 0 0 0
-3.0982683 2.8819213 3.969342 15.0625 0 0 0 0
-2.8510947 2.9033804 4.0007138 12.703125 0 0 0 0
-2.515213 2.8704262 3.9584248 20.125 0 0 0 0
-2.3322525 2.8303337 4.0424089 14.382812 0 0 0 0
-2.0151229 2.8118992 4.1016092 2.867502 0 0 0 0
-1.6714168 2.8240685 4.1490254 14.746668 0 0 0 0
-1.3428419 2.8290918 4.0737724 12.871666 0 0 0 0
-1.0357398 2.7829533 4.1459093 22.104021 0 0 0 0
-0.71352786 2.8126209 4.0353255 19.837681 0 0 0 0
-0.40382266 2.8468642 3.9727969 17.014084 0 0 0 0
-15.907959 3.1618853 4.059289 91.916672 0 0 0 0
-15.875169 3.1281571 4.0188293 45.84259 0 0 0 0
-12.634977 3.173183 4.1135778 22.807364 0 0 0 0
-12.537457 3.2804794 4.1415606 29.188721 0 0 0 0
-12.136854 3.1161861 4.1310463 32.983181 0 0 0 0
-11.801424 3.2198257 4.0613856 33.916992 0 0 0 0
-11.530184 3.0966573 4.0478997 35.93689 0 0 0 0
-11.194502 3.2406893 4.024579 37.739166 0 0 0 0
-10.847407 3.2704105 3.9983675 35.249596 0 0 0 0
-10.655445 3.135463 3.9485648 34.48217 0 0 0 0
-10.313881 3.1989846 3.9535208 37.889641 0 0 0 0
-10.048862 3.1437912 3.9228306 34.061195 0 0 0 0
-9.8445778 3.1228499 3.9104164 34.148438 0 0 0 0
-3.428462 3.0383928 3.989006 28 0 0 0 0
-2.924284 3.0413918 3.9391019 13.25 0 0 0 0
-2.6736834 3.0468402 3.9150229 30 0 0 0 0
-1.9823346 3.1762855 4.0251055 18.25 0 0 0 0
-1.0010015 3.2445426 3.9494815 31.25 0 0 0 0
-0.65117371 3.268538 3.9616263 21.203125 0 0 0 0
-0.56519961 3.2547152 3.9525943 29.979168 0 0 0 0
-15.912977 3.3282189 4.0289054 102 0 0 0 0
-15.874338 3.4863369 4.0625772 57.168621 0 0 0 0
-12.725703 3.379791 4.0995035 6.8612442 0 0 0 0
-12.474562 3.4002328 4.1165371 30.996674 0 0 0 0
-12.240687 3.3269176 4.1214247 32.535782 0 0 0 0
-11.967453 3.3788428 4.1125364 31.287231 0 0 0 0
-11.509682 3.3486285 4.0479012 36.827568 0 0 0 0
-11.320452 3.3719378 4.0314674 35.749886 0 0 0 0
-10.877164 3.3571966 3.9766307 35.62677 0 0 0 0
-10.609699 3.3713408 3.9626236 37.184662 0 0 0 0
-10.394678 3.3529849 3.9583418 34.904362 0 0 0 0
-9.9839802 3.3727269 3.9168522 33.767639 0 0 0 0
-9.7617283 3.5075672 3.905901 37.8125 0 0 0 0
-9.1343851 3.4776263 3.9164553 3 0 0 0 0
-1.3057983 3.4097443 4.1361198 34.833336 0 0 0 0
-1.0685 3.4456677 4.1421885 24.75 0 0 0 0
-0.78186977 3.5472693 4.1776743 21.927521 0 0 0 0
-0.49483496 3.525914 4.1831803 17.328403 0 0 0 0
-0.18818218 3.5924346 4.1432362 24.4 0 0 0 0
0.12179415 3.5497353 4.135704 0.42523932 0 0 0 0
-15.905413 3.8286705 4.1368351 97.205078 0 0 0 0
-15.870402 3.8188567 4.1388254 83.591537 0 0 0 0
-12.728398 3.7610402 4.1239872 9.7413254 0 0 0 0
-12.47802 3.7718072 4.1364293 27.80378 0 0 0 0
-12.148891 3.7596507 4.1280828 27.164562 0 0 0 0
-11.834831 3.7816572 4.0916443 28.846909 0 0 0 0
-11.517838 3.8595791 4.0220542 32.435577 0 0 0 0
-11.267128 3.7904105 4.0308208 33.700768 0 0 0 0
-10.888453 3.8196445 3.9918365 34.165054 0 0 0 0
-10.690314 3.8072455 3.959305 33.526291 0 0 0 0
-10.407207 3.7915154 3.9419649 37.532158 0 0 0 0
-10.128773 3.6960497 3.9559808 32.888767 0 0 0 0
-9.833354 3.778358 3.910768 31.875 0 0 0 0
-8.9629622 3.8490393 3.9004128 1 0 0 0 0
-0.75097501 3.7439423 4.1931367 5.4336872 0 0 0 0
-0.3962996 3.70276 4.1729774 7.168643 0 0 0 0
-0.20312923 3.7286153 4.1616879 14.595146 0 0 0 0
0.28641754 3.8407626 4.100564 29.58543 0 0 0 0
0.32999831 3.7697091 4.1019974 29.795101 0 0 0 0
0.65577829 3.8801799 4.0728397 35.379303 0 0 0 0
0.96331584 3.8223495 4.0468764 13.740469 0 0 0 0
1.467978 3.8536038 3.9545693 34 0 0 0 0
1.6546659 3.8494468 3.952219 34.648518 0 0 0 0
2.0355444 3.8074322 3.9118223 35.595898 0 0 0 0
2.1785138 3.8583212 3.9028363 35.181808 0 0 0 0
-15.925472 4.0543375 3.9549346 102.60889 0 0 0 0
-15.877378 4.049654 4.1053438 93.448624 0 0 0 0
-12.632409 4.0209894 4.1342669 24.565647 0 0 0 0
-12.53688 3.9530301 4.11448 30.293091 0 0 0 0
-12.05717 4.0556011 4.1280065 28.636158 0 0 0 0
-11.916089 4.0241823 4.0950031 29.400208 0 0 0 0
-11.565747 3.9854059 4.0341692 28.974129 0 0 0 0
-11.168693 4.117301 4.0265508 32.134884 0 0 0 0
-11.021677 4.0663924 4.0382299 33.353096 0 0 0 0
-10.601168 3.9663119 3.9470258 32.468658 0 0 0 0
-10.416761 4.0044107 3.9487672 33.446449 0 0 0 0
-10.069866 4.0844169 3.9265368 32.20517 0 0 0 0
-9.7410889 4.1295314 3.9056549 31.027344 0 0 0 0
-9.5033121 4.0068336 3.9019611 35 0 0 0 0
-0.9183352 4.0421028 4.1982422 37.708332 0 0 0 0
-0.75266445 4.012939 4.1814632 36.317848 0 0 0 0
-0.36392742 4.0511808 4.1516562 35.526203 0 0 0 0
-0.1528701 3.9397693 4.1346502 19.492876 0 0 0 0
0.16941912 4.0504837 4.1287966 10.62304 0 0 0 0
0.53152406 3.9336777 4.0778236 35.875137 0 0 0 0
0.81490278 4.0684037 4.0573697 35.730019 0 0 0 0
1.0151932 4.1040144 4.0402966 38.607574 0 0 0 0
1.2809899 4.0151424 3.9938293 33.696869 0 0 0 0
1.7820445 4.1688471 3.942585 35.138817 0 0 0 0
1.8609738 4.1342621 3.9336782 35.098846 0 0 0 0
2.1744163 4.1087074 3.9034543 33.325069 0 0 0 0
-15.945092 4.3512783 3.998754 60.864388 0 0 0 0
-15.893766 4.2703428 4.1592331 86.307617 0 0 0 0
-12.672775 4.2892919 4.1302781 9.8900547 0 0 0 0
-12.44116 4.3182678 4.1375327 31.385197 0 0 0 0
-12.198187 4.3548107 4.1102982 30.484226 0 0 0 0
-11.904559 4.2922134 4.1000099 30.35116 0 0 0 0
-11.554363 4.2738051 4.0498657 25.511688 0 0 0 0
-11.288693 4.3265643 4.0092168 31.333027 0 0 0 0
-11.004307 4.4238434 4.0165882 29.744759 0 0 0 0
-10.701269 4.3799686 3.978745 27.383812 0 0 0 0
-10.381581 4.3512487 3.9352241 27.190599 0 0 0 0
-9.998991 4.326879 3.931062 33.234726 0 0 0 0
-9.8246937 4.3070555 3.9106479 33.050781 0 0 0 0
-9.4178219 4.2802672 3.9017618 28 0 0 0 0
-0.72302735 4.3432322 4.1781588 16.496094 0 0 0 0
-0.44190511 4.4278765 4.1559725 33.382328 0 0 0 0
-0.028420037 4.4201546 4.1426411 3.0866711 0 0 0 0
0.17705435 4.2581968 4.1063137 25.624023 0 0 0 0
0.40757442 4.2839208 4.0825481 35.329166 0 0 0 0
0.73141938 4.3459616 4.0647764 34.328094 0 0 0 0
1.020951 4.3299847 4.0377769 34.245083 0 0 0 0
1.4119451 4.2783866 3.9758854 34.53125 0 0 0 0
1.7631263 4.3823214 3.939867 35.772583 0 0 0 0
1.867007 4.3658714 3.9376225 35.180908 0 0 0 0
2.1811647 4.3068027 3.902446 35.116852 0 0 0 0
-15.919676 4.7074332 4.1187062 59.123127 0 0 0 0
-15.897238 4.6129575 4.1611423 53.25 0 0 0 0
-12.767571 4.7550912 4.1128883 6.2497158 0 0 0 0
-12.519757 4.7355299 4.1352859 20.788055 0 0 0 0
-12.21949 4.7523222 4.127944 32.666748 0 0 0 0
-11.887959 4.6688323 4.1045513 24.724682 0 0 0 0
-11.515559 4.6189489 4.0759993 29.269573 0 0 0 0
-11.206945 4.6839762 4.0020857 29.266548 0 0 0 0
-10.916681 4.7694798 4.0112467 30.049301 0 0 0 0
-10.637987 4.6082764 3.9640074 28.664976 0 0 0 0
-10.326771 4.7084227 3.9492607 20.19647 0 0 0 0
-10.107219 4.6309853 3.9321439 33.070801 0 0 0 0
-9.7695484 4.6700912 3.914434 29.25 0 0 0 0
-9.3195019 4.7971973 3.9299674 1 0 0 0 0
-0.6805166 4.6345124 4.1882849 30.706055 0 0 0 0
-0.4167335 4.68505 4.1689138 27.684219 0 0 0 0
-0.049449891 4.6126289 4.1421747 18.99192 0 0 0 0
0.23542438 4.5992622 4.1053104 35.555172 0 0 0 0
0.3907266 4.6619229 4.0877972 36.543884 0 0 0 0
0.72632354 4.6267672 4.0574675 35.552265 0 0 0 0
1.0167241 4.5846767 4.0325413 34.792774 0 0 0 0
1.3396518 4.6090422 3.9911656 28.75 0 0 0 0
1.765703 4.6129851 3.9478629 35.571682 0 0 0 0
1.8502713 4.5539646 3.9393969 36.478172 0 0 0 0
2.1932232 4.6891785 3.9012413 34.997272 0 0 0 0
-15.938015 4.9040289 4.0750408 55.141907 0 0 0 0
-15.84166 5.0739779 4.1196871 46.40625 0 0 0 0
-12.919619 5.068861 3.9517939 13.5 0 0 0 0
-12.767492 4.8503704 4.1297483 9.6091843 0 0 0 0
-12.463154 4.9409075 4.1130204 31.57645 0 0 0 0
-12.184682 4.8303156 4.1395731 28.130356 0 0 0 0
-11.756871 4.8934288 4.1029816 28.488647 0 0 0 0
-11.435672 4.9169626 4.0437574 29.21052 0 0 0 0
-11.322959 4.8893576 4.041131 27.085083 0 0 0 0
-11.021479 4.9326773 4.0044246 22.034107 0 0 0 0
-10.577265 4.8540225 3.9631164 11.599155 0 0 0 0
-10.343079 4.9001646 3.9453077 5.5834351 0 0 0 0
-9.966588 5.0029387 3.9512229 10.704102 0 0 0 0
-9.8773422 5.0078135 3.9394691 15.333334 0 0 0 0
-9.44701 4.9878511 3.9325159 5 0 0 0 0
-0.7088905 4.8338795 4.196476 33.666668 0 0 0 0
-0.39654562 4.9100971 4.1698732 27.825195 0 0 0 0
-0.0919379 4.9546461 4.1475286 31.880898 0 0 0 0
0.24167357 4.9510326 4.114099 32.193249 0 0 0 0
0.53659952 4.9381571 4.0826807 30.168526 0 0 0 0
0.76318616 4.9710956 4.0604877 36.703751 0 0 0 0
1.0093194 4.9148717 4.0416546 35.157406 0 0 0 0
1.47858 4.9826636 3.9835916 27.958334 0 0 0 0
1.7658994 4.893476 3.9485874 33.582031 0 0 0 0
1.9938772 5.043149 3.9309978 33.261906 0 0 0 0
2.1924086 5.0094995 3.9099696 31.194317 0 0 0 0
-22.800592 5.1227708 4.0465145 8 0 0 0 0
-22.624809 5.2541466 4.0071821 19.423561 0 0 0 0
-15.929605 5.1936588 4.0458908 55.648922 0 0 0 0
-15.700216 5.2536068 3.9602034 20.674004 0 0 0 0
-15.386269 5.2471037 4.0487809 17.494156 0 0 0 0
-15.124884 5.2305107 4.0166788 21.940037 0 0 0 0
-14.880808 5.2443724 4.0571232 25.853113 0 0 0 0
-14.558415 5.2418413 3.9981415 28.535711 0 0 0 0
-14.274794 5.2410917 4.0551486 20.749958 0 0 0 0
-13.93411 5.2467227 4.0273309 26.669771 0 0 0 0
-13.628388 5.2419977 3.9877772 28.853312 0 0 0 0
-13.40966 5.2506771 4.1204352 31.84203 0 0 0 0
-13.08165 5.2677355 4.0938773 26.059834 0 0 0 0
-12.877195 5.2622728 4.0089164 17.272141 0 0 0 0
-12.386589 5.2726855 4.0432281 33.286224 0 0 0 0
-12.147945 5.1944237 4.1262693 34.271725 0 0 0 0
-11.855576 5.2013135 4.1172504 29.713226 0 0 0 0
-11.572492 5.1956587 4.0838647 23.812965 0 0 0 0
-11.224005 5.1459293 4.0149693 13.022122 0 0 0 0
-11.033613 5.2810478 3.9911189 29.220566 0 0 0 0
-10.611354 5.2849946 3.9571185 25.643536 0 0 0 0
-10.244014 5.2769427 3.932579 16.881073 0 0 0 0
-10.009795 5.2171998 3.9245946 14.862305 0 0 0 0
-9.7724609 5.2748923 3.9058936 32.53125 0 0 0 0
-0.61831886 5.3597059 4.1928263 31.75 0 0 0 0
-0.36336875 5.3198996 4.1859455 18.229101 0 0 0 0
-0.16875653 5.2126856 4.1601725 24.058235 0 0 0 0
0.1670571 5.2862139 4.12743 31.074102 0 0 0 0
0.56931859 5.2176085 4.0843344 29.989937 0 0 0 0
0.67997026 5.2208958 4.0688977 34.078041 0 0 0 0
1.0036614 5.2484808 4.0401001 31.888105 0 0 0 0
1.2746503 5.1380663 4.0129251 30.5 0 0 0 0
1.6505028 5.3551626 3.9576719 27.508247 0 0 0 0
1.9747251 5.2076626 3.9372239 31.045761 0 0 0 0
2.1565666 5.2012057 3.9130392 32.226082 0 0 0 0
2.4891012 5.3046718 3.9017181 24.333334 0 0 0 0
-15.944966 5.5568275 3.9716623 22.661171 0 0 0 0
-15.672515 5.6172733 3.9309359 7.5 0 0 0 0
-15.210732 5.572021 3.9288654 8.125 0 0 0 0
-12.345964 5.4584332 3.9291718 28.867334 0 0 0 0
-12.16592 5.4338398 4.1255913 35.767216 0 0 0 0
-11.856167 5.4568825 4.0653858 31.457153 0 0 0 0
-11.492869 5.5726156 4.0735936 28.005493 0 0 0 0
-11.237333 5.5668869 4.0445662 27.743042 0 0 0 0
-11.000102 5.5976868 3.9880352 29.828125 0 0 0 0
-10.688977 5.6242857 3.9922533 15.004832 0 0 0 0
-10.360212 5.4645405 3.9605544 6.5762715 0 0 0 0
-10.093178 5.5332851 3.9205565 24.031555 0 0 0 0
-9.8194065 5.4643459 3.9092526 29.464844 0 0 0 0
-1.6262221 5.6829081 4.1336136 29.65 0 0 0 0
-1.3027138 5.6798754 4.1247673 34 0 0 0 0
-1.1197157 5.6753702 4.1643009 32.75 0 0 0 0
-0.69381219 5.6070428 4.100596 30.694445 0 0 0 0
-0.3536061 5.6294088 4.063374 19.708405 0 0 0 0
-0.092179328 5.5730457 4.1505327 30.834267 0 0 0 0
0.13061927 5.6505208 4.059063 34.770718 0 0 0 0
0.52913123 5.5851192 4.0759649 28.960369 0 0 0 0
0.66634369 5.563427 4.07234 30.923244 0 0 0 0
0.99258441 5.4622984 3.9456134 30.19257 0 0 0 0
1.3605095 5.5625582 4.0076976 34.25 0 0 0 0
1.6089252 5.4544864 3.9731894 32.972221 0 0 0 0
1.9451774 5.5778465 3.9469004 38.206715 0 0 0 0
2.1553302 5.5272002 3.9172153 46.348415 0 0 0 0
2.4571118 5.579309 3.9006424 29 0 0 0 0
-15.933112 5.8926687 4.0059052 7.9340324 0 0 0 0
-15.853643 5.8186679 4.0206513 6.0950775 0 0 0 0
-15.509055 5.857338 3.9195676 5.3125 0 0 0 0
-15.151533 5.9577618 3.9136922 5.1796875 0 0 0 0
-14.926124 5.7107983 3.9132812 5 0 0 0 0
-12.387384 5.8788953 4.0196619 30.660753 0 0 0 0
-12.197141 5.7576418 4.1201987 37.778435 0 0 0 0
-11.853909 5.949801 4.1296778 4.9854736 0 0 0 0
-11.55395 5.8471532 4.0417433 27.763184 0 0 0 0
-11.173676 5.9415483 4.0169864 24.143394 0 0 0 0
-10.909597 5.9198527 4.0083628 26.251877 0 0 0 0
-10.679997 5.8958397 3.9506836 25.161232 0 0 0 0
-10.308744 5.8351264 3.9492927 31.706295 0 0 0 0
-10.093513 5.8303633 3.943419 29.807434 0 0 0 0
-9.8494148 5.8506384 3.9135356 28.75 0 0 0 0
-2.3900445 5.7108865 4.1152477 2 0 0 0 0
-1.626443 5.7149162 4.0939922 14.75 0 0 0 0
-1.3658202 5.7096291 4.0936203 28.5625 0 0 0 0
-1.0151336 5.7119641 4.0595179 33.5 0 0 0 0
-0.87485176 5.7189465 4.069469 31 0 0 0 0
-0.46177897 5.7205024 3.9704771 23.046417 0 0 0 0
-0.18121004 5.7216549 3.9697666 27.70796 0 0 0 0
0.21669862 5.7167625 3.9624546 30.349392 0 0 0 0
0.54222554 5.7164097 3.9848032 37.693954 0 0 0 0
0.72203422 5.7278166 3.9935222 36.439781 0 0 0 0
1.0982146 5.728775 3.9950283 38.5 0 0 0 0
1.3433595 5.7187791 4.0044317 32.75 0 0 0 0
1.7812779 5.7347965 3.9255872 26 0 0 0 0
1.9015855 5.726676 3.9379954 40.974609 0 0 0 0
2.3360057 5.707365 3.9061673 53 0 0 0 0
2.4060781 5.7141442 3.9015627 44.5 0 0 0 0
-15.971389 6.0936966 3.9230926 8.3061523 0 0 0 0
-15.877663 6.1663237 3.9246135 4.521698 0 0 0 0
-12.665277 6.2255211 3.9626727 4.6662216 0 0 0 0
-12.499945 6.134408 4.1436424 11.285238 0 0 0 0
-12.162271 6.1642098 4.1409159 5.1849174 0 0 0 0
-11.810056 6.136322 4.0857534 8.3355122 0 0 0 0
-11.525026 6.2493219 4.0648746 25.48761 0 0 0 0
-11.202217 6.1188774 4.0373788 26.453125 0 0 0 0
-10.921597 6.133131 4.0012493 30.309801 0 0 0 0
-10.665754 6.1944256 3.9806871 24.59886 0 0 0 0
