# .PCD v0.7 - Point Cloud Data file format
VERSION 0.7
FIELDS x y z intensity normal_x normal_y normal_z curvature
SIZE 4 4 4 4 4 4 4 4
TYPE F F F F F F F F
COUNT 1 1 1 1 1 1 1 1
WIDTH 974
HEIGHT 1
VIEWPOINT 0 0 0 1 0 0 0
POINTS 974
DATA ascii
-7.2773514 -1.264446 -0.68981439 3.8267558 0 0 0 0
-7.104383 -1.3518317 -0.7176621 9.9515839 0 0 0 0
-6.6366634 -1.2121047 -0.79133499 0 0 0 0 0
-6.4173136 -1.2440119 -0.77375221 0.125 0 0 0 0
-6.2454343 -1.4733837 -0.77630609 0 0 0 0 0
5.3870139 -1.2800285 -0.80227149 2.7315626 0 0 0 0
5.6641417 -1.437673 -0.80885696 0.99861187 0 0 0 0
5.7784972 -1.419157 -0.8089155 0.96664846 0 0 0 0
6.2230606 -1.2645055 -0.81234366 0.90234464 0 0 0 0
6.3954468 -1.3229387 -0.80979937 0.84057057 0 0 0 0
6.7237473 -1.3674437 -0.81969798 1.0541947 0 0 0 0
7.0494261 -1.3316776 -0.817285 0.96062499 0 0 0 0
7.3363199 -1.2700062 -0.8203966 1.4082558 0 0 0 0
7.6919947 -1.3233396 -0.81512237 0.72105145 0 0 0 0
7.8890648 -1.2277701 -0.82631719 0.97445941 0 0 0 0
8.2410831 -1.4421034 -0.82200706 0.88157499 0 0 0 0
8.6185207 -1.4525254 -0.84926963 3.2621007 0 0 0 0
8.7999821 -1.4158518 -0.78096086 13.607717 0 0 0 0
9.0266647 -1.4472376 -0.76936454 40.093994 0 0 0 0
-9.3537407 -1.0939832 -0.61259472 32.1875 0 0 0 0
-8.1147547 -1.0847356 -0.62028128 24.208855 0 0 0 0
-8.0238466 -0.95207262 -0.67757505 28.940331 0 0 0 0
-7.576335 -1.0224407 -0.7881304 3.160604 0 0 0 0
-7.2956324 -1.0310957 -0.77602851 0.83022773 0 0 0 0
-7.0121818 -1.1225843 -0.79278612 0.26741534 0 0 0 0
-6.6879334 -1.1343167 -0.78659415 0 0 0 0 0
-6.5465641 -1.1217947 -0.77863914 0.001953125 0 0 0 0
5.375174 -1.0719312 -0.80297989 2.1015625 0 0 0 0
5.6597576 -1.1014352 -0.80591321 1.0003372 0 0 0 0
5.7726512 -0.93773437 -0.80982506 1.0234293 0 0 0 0
6.1013355 -0.96898711 -0.8146441 1.2461913 0 0 0 0
6.4208465 -1.0546573 -0.81508601 1.1421089 0 0 0 0
6.7507353 -0.97031546 -0.81598616 1.3338492 0 0 0 0
7.0408821 -1.0130949 -0.82363415 1.307462 0 0 0 0
7.3809934 -1.0322508 -0.82203007 1.7775428 0 0 0 0
7.7260327 -1.1369617 -0.81984448 1.0573599 0 0 0 0
7.8743639 -1.1499534 -0.82220566 1.0327251 0 0 0 0
8.1686211 -1.1359086 -0.81052089 1.0021187 0 0 0 0
8.6479626 -1.0477597 -0.87226015 4.0309916 0 0 0 0
8.8082838 -1.0909443 -0.77670932 41.32618 0 0 0 0
-9.3779602 -0.83175057 -0.60898137 40.046875 0 0 0 0
-9.170742 -0.68418145 -0.60983157 43.538937 0 0 0 0
-8.1407137 -0.66055793 -0.6094687 15.677864 0 0 0 0
-7.9745436 -0.64772123 -0.73480105 21.605389 0 0 0 0
-7.7250648 -0.75537777 -0.81590068 1 0 0 0 0
-7.2656107 -0.69973803 -0.77983814 0.056554355 0 0 0 0
-7.1013374 -0.77664942 -0.78393507 0.080785677 0 0 0 0
-6.7271423 -0.8208949 -0.78588116 0 0 0 0 0
-6.4764862 -0.69084865 -0.78625214 0 0 0 0 0
5.3584576 -0.84469849 -0.8088128 1.8691204 0 0 0 0
5.6688442 -0.74123764 -0.81232852 1.2071609 0 0 0 0
5.7536416 -0.66221023 -0.81385809 1.6444831 0 0 0 0
6.1965499 -0.77785003 -0.81286675 1.2064427 0 0 0 0
6.4931779 -0.86918414 -0.81572592 1.3082471 0 0 0 0
6.8066907 -0.77166122 -0.81794059 1.2633621 0 0 0 0
7.0151496 -0.82291782 -0.82237679 1.2895374 0 0 0 0
7.2893219 -0.71183336 -0.82543051 1.0606109 0 0 0 0
7.6374469 -0.74837118 -0.81212115 0.98443848 0 0 0 0
7.8939128 -0.7609905 -0.82475835 1.0520382 0 0 0 0
8.1398792 -0.75152767 -0.83026475 1.1469549 0 0 0 0
8.576643 -0.83860922 -0.88007677 5.25 0 0 0 0
8.8069696 -0.74962378 -0.78313076 44.07217 0 0 0 0
-9.178441 -0.38577032 -0.6184274 42.968742 0 0 0 0
-8.1083622 -0.40620559 -0.63434714 30.129166 0 0 0 0
-7.9710231 -0.50624031 -0.77240664 30.634197 0 0 0 0
-7.3261976 -0.48967338 -0.7875964 0 0 0 0 0
-7.0995235 -0.33096093 -0.78265852 0.03125 0 0 0 0
-6.7898455 -0.54149055 -0.78191638 0 0 0 0 0
-6.5477228 -0.52479303 -0.78073245 0 0 0 0 0
5.3805027 -0.50106156 -0.80566311 4.5 0 0 0 0
5.6647291 -0.56989753 -0.81247342 1.8371994 0 0 0 0
5.7747908 -0.5729872 -0.81515902 1.0826786 0 0 0 0
6.1933622 -0.5499239 -0.81884444 1.5480986 0 0 0 0
6.4823084 -0.54235673 -0.82325339 0.98907363 0 0 0 0
6.6668844 -0.56052852 -0.82355273 0.94380629 0 0 0 0
7.1001158 -0.58243477 -0.82145494 1.8252282 0 0 0 0
7.3685465 -0.54767877 -0.81377149 1.0780399 0 0 0 0
7.6802087 -0.55447853 -0.82913375 1.8373048 0 0 0 0
7.9684978 -0.53180039 -0.82865649 1.4240952 0 0 0 0
8.1894016 -0.57023722 -0.81710613 1 0 0 0 0
8.6724138 -0.48845029 -0.88971579 7.5 0 0 0 0
8.8178883 -0.55965352 -0.72235018 56.538242 0 0 0 0
-9.4277229 -0.18642899 -0.62300867 30.78772 0 0 0 0
-9.2705021 -0.25633577 -0.6291647 22 0 0 0 0
-8.1283112 -0.24170241 -0.61518168 48.3125 0 0 0 0
-7.9357834 -0.10480478 -0.69093853 38.313534 0 0 0 0
-7.3598552 -0.18377373 -0.79859364 0 0 0 0 0
-7.0722961 -0.15366164 -0.78728473 0 0 0 0 0
-6.725071 -0.082123622 -0.77827603 0 0 0 0 0
-6.5541935 -0.12461852 -0.79252541 0 0 0 0 0
-7.914978 0.08362399 -0.65505075 41.429295 0 0 0 0
-8.2883415 0.57344717 -0.62630391 57.472206 0 0 0 0
-7.9133596 0.36771515 -0.70641732 34.768967 0 0 0 0
-8.4529095 0.64955604 -0.64746225 0 0 0 0 0
-8.3025637 0.65642571 -0.62619954 55.350815 0 0 0 0
-7.9454036 0.86665785 -0.70368141 24.402805 0 0 0 0
-12.981624 1.172336 -0.87195545 1 0 0 0 0
-8.1419411 1.1381052 -0.60822403 18.65625 0 0 0 0
-7.9543972 0.93184423 -0.66079038 19.441334 0 0 0 0
-13.649809 1.4110936 -0.82410389 1 0 0 0 0
-8.9239063 1.4729761 -0.61669898 0.90625 0 0 0 0
-8.1627283 1.3388834 -0.64231181 26.06525 0 0 0 0
-7.9505692 1.2864609 -0.71840405 19.204353 0 0 0 0
-7.3559418 1.2031509 -0.80466843 0 0 0 0 0
3.7751346 1.4920576 -0.6071775 14.5 0 0 0 0
-13.348129 1.790174 -0.82583487 5.4830732 0 0 0 0
-13.023801 1.7772861 -0.67336428 41.172363 0 0 0 0
-12.698887 1.7846171 -0.69836479 11 0 0 0 0
-12.333601 1.6969144 -0.77600026 8.1887884 0 0 0 0
-12.278772 1.749047 -0.76975775 8.0257587 0 0 0 0
-8.7426014 1.7590498 -0.78802085 1.2558594 0 0 0 0
-8.5097589 1.7031748 -0.64164209 19.559475 0 0 0 0
-8.2645569 1.5949317 -0.73187995 9.5353022 0 0 0 0
-7.8593445 1.7507198 -0.70166576 15.861209 0 0 0 0
-7.2597089 1.767828 -0.80123389 0 0 0 0 0
-7.0980425 1.7128347 -0.79968703 0 0 0 0 0
-6.794364 1.6041839 -0.79635155 0 0 0 0 0
-6.4472165 1.7718713 -0.808954 0 0 0 0 0
3.7834044 1.5307004 -0.60410315 16.774279 0 0 0 0
-17.49929 1.8303607 -0.8449868 2 0 0 0 0
-13.054242 1.844373 -0.65483773 1 0 0 0 0
-12.320912 1.972373 -0.78503698 1.1308594 0 0 0 0
-12.228432 1.9368043 -0.7876991 2.5190711 0 0 0 0
-8.7868938 1.8443055 -0.80637217 2.6694336 0 0 0 0
-8.4998283 1.8378911 -0.64016581 21.0937 0 0 0 0
-8.298914 1.8966055 -0.65128279 33.172447 0 0 0 0
-7.9456749 1.8986313 -0.65356851 26.499727 0 0 0 0
-7.7927866 2.0419264 -0.84672248 6.75 0 0 0 0
-7.2558284 1.9349382 -0.80733752 0 0 0 0 0
-7.0376244 1.8847501 -0.79950023 0 0 0 0 0
-6.8432274 1.8830597 -0.80300784 0.0625 0 0 0 0
-6.0943556 1.9479085 -0.80110449 0 0 0 0 0
-5.8789735 2.0650477 -0.80849314 0 0 0 0 0
3.5837088 2.0310566 -0.63336277 3.2249999 0 0 0 0
3.7780759 1.8487165 -0.61682159 17.401617 0 0 0 0
-13.006454 2.1752939 -0.60424834 20 0 0 0 0
-8.426219 2.199079 -0.63562572 40.824917 0 0 0 0
-8.1622543 2.2651553 -0.63320976 48.140923 0 0 0 0
-7.979146 2.2608578 -0.6545229 34.725109 0 0 0 0
-7.0282803 2.2116995 -0.8076539 0.0052083335 0 0 0 0
-6.7807212 2.3478858 -0.79732406 0 0 0 0 0
-5.8039894 2.1556621 -0.81094182 0 0 0 0 0
3.5681572 2.2202551 -0.61122668 10.494347 0 0 0 0
3.6766818 2.195715 -0.62139237 10.00462 0 0 0 0
-13.613922 2.6961145 -0.64508301 48 0 0 0 0
-13.231901 2.5339005 -0.63312232 4 0 0 0 0
-13.079281 2.6124153 -0.63156182 2.7526526 0 0 0 0
-11.016426 2.5779028 -0.70471239 1 0 0 0 0
-8.5122499 2.4183569 -0.65233564 0 0 0 0 0
-8.2178574 2.5242553 -0.62380129 28.331474 0 0 0 0
-7.8962202 2.6488199 -0.70436227 32.681526 0 0 0 0
-7.7863026 2.595757 -0.84224427 7 0 0 0 0
-7.2430434 2.4691348 -0.80976641 0 0 0 0 0
-7.1524038 2.47594 -0.80097902 0 0 0 0 0
-6.3703737 2.6478047 -0.80339801 0 0 0 0 0
-6.089077 2.5777154 -0.71573186 0.38553876 0 0 0 0
-5.8882403 2.6445818 -0.66396582 2.6887465 0 0 0 0
-5.6898923 2.4682605 -0.81578732 0 0 0 0 0
-13.963443 2.744663 -0.75881922 2 0 0 0 0
-13.632594 2.7452629 -0.68327397 42.958511 0 0 0 0
-13.360332 2.7576442 -0.66551232 24.199219 0 0 0 0
-13.04878 2.8477893 -0.64847124 12.434035 0 0 0 0
-10.635982 2.9004736 -0.66618061 2.5653203 0 0 0 0
-10.443184 2.9528775 -0.6221534 1.265625 0 0 0 0
-8.4524832 2.9567571 -0.6090349 4.25 0 0 0 0
-8.2310247 2.8920283 -0.61380267 16.104166 0 0 0 0
-7.8624945 2.9405937 -0.68839419 28.105442 0 0 0 0
-7.7750053 2.9367952 -0.81663817 14.6627 0 0 0 0
-7.2827873 2.8511028 -0.81608224 0 0 0 0 0
-7.1750121 2.8581376 -0.80429864 0.5 0 0 0 0
-6.3855948 2.7084904 -0.81681347 0 0 0 0 0
-6.056222 2.7939248 -0.67871451 0.80435622 0 0 0 0
-5.9587708 2.7290561 -0.65112787 2.4095995 0 0 0 0
-5.6921506 2.7123101 -0.71486604 1 0 0 0 0
-13.267408 3.0936146 -0.73885506 2.6818748 0 0 0 0
-13.09404 3.0113976 -0.71303594 5.8203125 0 0 0 0
-10.54063 3.1429744 -0.67715049 15.53396 0 0 0 0
-10.487364 3.2039118 -0.6873126 7.6586299 0 0 0 0
-9.8009787 3.1127067 -0.66158879 3.75 0 0 0 0
-9.4778252 3.1835628 -0.64218581 7.0628643 0 0 0 0
-8.5169983 3.1368315 -0.60208619 3 0 0 0 0
-8.1371288 3.1997561 -0.61040401 10.13073 0 0 0 0
-7.8949718 3.2091241 -0.69829226 12.024019 0 0 0 0
-7.7764482 3.1533003 -0.82759321 9.2263422 0 0 0 0
2.5990748 3.2451572 -0.60364306 32.11554 0 0 0 0
-13.369843 3.3679557 -0.7253443 4.1758003 0 0 0 0
-8.5803051 3.4079938 -0.60409486 2.4121094 0 0 0 0
-8.1363153 3.4269261 -0.61267328 4.9938965 0 0 0 0
-7.9549561 3.3330116 -0.6643393 34.505264 0 0 0 0
-7.7751727 3.5511236 -0.82553363 6.1146784 0 0 0 0
2.5991812 3.3704717 -0.60572731 26.490982 0 0 0 0
-8.6016445 3.6629765 -0.62023574 1.125 0 0 0 0
-8.1164427 3.7370946 -0.63822293 1 0 0 0 0
-7.8080077 3.6578782 -0.73211873 12.628918 0 0 0 0
-7.7925906 3.6413052 -0.75682032 21.99007 0 0 0 0
-8.1056442 4.1335831 -0.67659819 11.5 0 0 0 0
-7.883563 3.9777312 -0.75814742 10.860483 0 0 0 0
-7.7826619 3.921823 -0.796924 16.375 0 0 0 0
-17.5282 4.4568958 -0.86420095 2 0 0 0 0
-9.2393684 4.327755 -0.73748744 1.25 0 0 0 0
9.7707186 4.3843303 -0.65761071 1.8102726 0 0 0 0
9.9007082 4.4960804 -0.60638523 3 0 0 0 0
-9.0792761 4.5218639 -0.67474014 3.2226562 0 0 0 0
3.5332448 4.7652216 -0.85192889 2.0104165 0 0 0 0
9.3986712 4.6105814 -0.61037689 6.2633967 0 0 0 0
9.7441101 4.545084 -0.66368258 1.7397742 0 0 0 0
9.9155369 4.5341482 -0.60902882 3.4609375 0 0 0 0
-2.1618283 4.9074149 -0.61347914 1.25 0 0 0 0
-1.8404347 4.9330158 -0.62215137 16.625 0 0 0 0
3.2496772 5.0306463 -0.85785937 2.1666665 0 0 0 0
3.5550027 4.9267726 -0.84996068 1.3833433 0 0 0 0
3.7083769 5.0045576 -0.85205364 2.1586089 0 0 0 0
-1.8560233 5.3622541 -0.60739034 0 0 0 0 0
-0.94392866 5.3188562 -0.62614393 19.621094 0 0 0 0
-0.64119583 5.3813877 -0.65300095 26.191977 0 0 0 0
-0.54967165 5.3942499 -0.65526837 25.779764 0 0 0 0
-0.24349923 5.3957882 -0.66648006 24.811541 0 0 0 0
0.16371042 5.3325543 -0.65727258 17.130716 0 0 0 0
0.3360686 5.3338194 -0.63174826 46.483971 0 0 0 0
0.61944222 5.2799954 -0.66258818 37.5 0 0 0 0
0.99097574 5.2017984 -0.64194191 5.8882823 0 0 0 0
2.6568105 5.3639455 -0.85564101 2.5 0 0 0 0
2.9002392 5.3222656 -0.85618234 1.7289497 0 0 0 0
3.1596065 5.2882986 -0.85154533 0.89005446 0 0 0 0
3.3690009 5.2616758 -0.85821187 1.5500156 0 0 0 0
3.8197494 5.355093 -0.85610354 0.79757029 0 0 0 0
3.9247541 5.3165255 -0.86052614 0.90254211 0 0 0 0
-1.8551154 5.5680466 -0.60375297 0.5 0 0 0 0
-1.0132978 5.6198063 -0.63730085 26.75 0 0 0 0
-0.73263192 5.6395659 -0.61350954 23.644608 0 0 0 0
-0.43003476 5.4096627 -0.62563467 24.107235 0 0 0 0
-0.098945275 5.4475594 -0.64483953 23.536388 0 0 0 0
0.10395504 5.5345502 -0.6656968 21.000626 0 0 0 0
0.31923017 5.4662561 -0.68578613 37.479523 0 0 0 0
0.96007252 5.5318093 -0.62599987 16.306545 0 0 0 0
1.2133337 5.6801977 -0.63276225 7.3319793 0 0 0 0
1.6999581 5.6792526 -0.77791989 10.375 0 0 0 0
1.8326694 5.6009631 -0.65054107 14.821215 0 0 0 0
2.2316351 5.6919165 -0.69093347 4.7303157 0 0 0 0
2.4340534 5.6297703 -0.78921729 1.05967 0 0 0 0
2.8844457 5.611331 -0.85436106 1.8312547 0 0 0 0
3.100064 5.5638566 -0.86024708 2.261116 0 0 0 0
3.45964 5.4550028 -0.85949588 2.1463318 0 0 0 0
3.7883182 5.4849701 -0.85937524 1.1008589 0 0 0 0
4.004199 5.4970784 -0.86277074 0.70221174 0 0 0 0
4.2563562 5.6032705 -0.86661005 0.5625 0 0 0 0
7.2832975 5.4904776 -0.68593061 29.628061 0 0 0 0
7.6003904 5.4507632 -0.69985461 22.517014 0 0 0 0
7.8272948 5.4542789 -0.71850985 27.871094 0 0 0 0
-6.5571871 5.8600998 -0.85117501 0 0 0 0 0
-1.851388 5.9088736 -0.65998995 16.870846 0 0 0 0
-1.7828317 5.9254932 -0.64100409 9.9223595 0 0 0 0
-1.0837057 5.9335361 -0.68942243 36.736145 0 0 0 0
-0.72793776 5.8298287 -0.69421172 24.264305 0 0 0 0
0.2174381 5.7684994 -0.69040322 0 0 0 0 0
1.1765871 5.9621677 -0.65353549 9.3187637 0 0 0 0
1.2210689 5.9587002 -0.64864355 12.843874 0 0 0 0
1.7059045 5.9456654 -0.81057405 3.284822 0 0 0 0
1.8329446 5.9375505 -0.66763663 17.739111 0 0 0 0
2.2308028 5.7222962 -0.68063796 6.1124783 0 0 0 0
2.6205158 5.9349618 -0.71077621 2.8488438 0 0 0 0
2.8298244 5.9115763 -0.80561161 0.69540781 0 0 0 0
3.1566629 5.8657675 -0.85598165 1.3005316 0 0 0 0
3.5209136 5.8324251 -0.85890687 0.81201792 0 0 0 0
3.7360959 5.8441439 -0.86888611 1.295258 0 0 0 0
3.9748759 5.8935881 -0.85882974 0.64209402 0 0 0 0
4.3417482 5.9414692 -0.86156487 0.87869239 0 0 0 0
4.6026917 5.9861197 -0.87739348 0 0 0 0 0
7.2652435 5.7305851 -0.64616251 35.796127 0 0 0 0
-6.6699467 6.1196527 -0.85182303 1 0 0 0 0
-6.5644388 6.0654736 -0.85494322 0 0 0 0 0
-1.1144733 6.0764194 -0.62337422 0.37915039 0 0 0 0
-0.78395271 6.0091658 -0.7755301 1 0 0 0 0
0.48247656 6.119915 -0.82468837 0 0 0 0 0
0.79861289 6.0767479 -0.82712162 0.0625 0 0 0 0
1.1341994 6.0707178 -0.81251657 6.5774789 0 0 0 0
1.2560309 6.0143328 -0.67911601 9.4921875 0 0 0 0
1.651149 6.0408478 -0.834705 3.2283914 0 0 0 0
1.880296 6.1286545 -0.83107388 1.1270853 0 0 0 0
2.2816522 6.0303326 -0.71377277 0.66666669 0 0 0 0
2.5391102 6.0841608 -0.69063199 1.4835045 0 0 0 0
2.8125801 6.0357313 -0.77338076 1.0377604 0 0 0 0
3.2223067 6.0565715 -0.84804624 0.012532307 0 0 0 0
3.4035888 6.073638 -0.84628808 0.00049538264 0 0 0 0
3.7337298 6.0248389 -0.85368478 0.55651283 0 0 0 0
4.0686917 6.0519118 -0.8606329 0.2573843 0 0 0 0
4.2999601 6.065465 -0.85967588 0.70996046 0 0 0 0
4.5367479 6.1721697 -0.87129569 0.9296875 0 0 0 0
7.2627649 6.0358434 -0.70958185 22 0 0 0 0
13.100237 6.1936464 -0.61992115 22.099922 0 0 0 0
-7.1001778 6.5380006 -0.85450691 1 0 0 0 0
-6.872859 6.3336596 -0.8550086 0 0 0 0 0
0.98211592 6.3706069 -0.85929084 0 0 0 0 0
1.8254545 6.4252119 -0.86455309 0 0 0 0 0
3.2247767 6.3660078 -0.87766361 0.0082092285 0 0 0 0
3.4453731 6.5664797 -0.8920486 0.0009765625 0 0 0 0
3.7782655 6.4066777 -0.88418514 0 0 0 0 0
4.0895166 6.4209995 -0.88641155 0 0 0 0 0
4.3261957 6.3798089 -0.89070559 0.16628039 0 0 0 0
4.6019554 6.3845329 -0.89029151 0.5 0 0 0 0
-7.5929041 6.7590785 -0.85964382 1 0 0 0 0
-7.3040638 6.7420673 -0.84900546 1 0 0 0 0
-7.1549525 6.7581606 -0.86173618 1 0 0 0 0
3.7229109 6.7535553 -0.89782846 0 0 0 0 0
4.4377942 6.6059732 -0.89711154 0 0 0 0 0
4.5614777 6.6201286 -0.89504761 0 0 0 0 0
-7.8394318 7.1106825 -0.86990988 0 0 0 0 0
-7.5548296 6.9519949 -0.85459989 0 0 0 0 0
15.311124 7.1290421 -0.61610103 6 0 0 0 0
15.252869 7.4257689 -0.71707433 41.890003 0 0 0 0
15.309998 7.3030744 -0.75857478 11.619543 0 0 0 0
-8.9110241 7.7821059 -0.87855685 1 0 0 0 0
-8.4805222 7.7586966 -0.87772 1 0 0 0 0
-8.2407475 7.6860251 -0.871948 1 0 0 0 0
-7.9260416 7.6445756 -0.87291169 1 0 0 0 0
-4.6444483 7.7251096 -0.86545116 0.828125 0 0 0 0
-4.271369 7.7308369 -0.87269819 0.875 0 0 0 0
-3.3591061 7.6812763 -0.86935776 0 0 0 0 0
-2.6835368 7.7754164 -0.87661779 1 0 0 0 0
-1.8892678 7.7398305 -0.88771677 0 0 0 0 0
-1.2383965 7.743329 -0.88213825 0 0 0 0 0
0.33680725 7.6934619 -0.89061916 0 0 0 0 0
1.1791724 7.7224345 -0.89353693 0 0 0 0 0
1.777684 7.6771531 -0.89744186 0 0 0 0 0
1.853621 7.7013063 -0.89702374 0 0 0 0 0
2.1803217 7.6747174 -0.89839286 0 0 0 0 0
4.3809958 7.7308908 -0.89724582 1 0 0 0 0
5.6019359 7.7781816 -0.88550729 0 0 0 0 0
6.7212172 7.788125 -0.89873374 0 0 0 0 0
15.173422 7.651135 -0.79911971 28.201349 0 0 0 0
-8.8597641 8.0246334 -0.86532986 1.125 0 0 0 0
-8.4636459 7.9097118 -0.86785936 1.0003357 0 0 0 0
-8.3170128 7.8848205 -0.87278414 1.125 0 0 0 0
-4.0263677 7.9153881 -0.8859148 0.25 0 0 0 0
-3.7440834 8.0804691 -0.88215703 3.4375 0 0 0 0
-2.7078278 7.8028979 -0.87657756 1 0 0 0 0
0.34729996 7.8201666 -0.89457595 1 0 0 0 0
5.7539439 7.8497958 -0.89759183 0 0 0 0 0
14.634438 8.0758057 -0.72882706 41.45055 0 0 0 0
14.824649 8.0450449 -0.81652147 27.706657 0 0 0 0
15.155111 7.9806786 -0.74046558 34.302738 0 0 0 0
-11.007294 8.3813057 -0.76273602 2.5 0 0 0 0
-9.3372364 8.3165684 -0.87829173 1.5 0 0 0 0
-9.0994787 8.3163853 -0.86337787 1.5130209 0 0 0 0
-8.7935152 8.2595587 -0.86813307 6.3168869 0 0 0 0
-8.5752449 8.3581877 -0.77408421 17.606606 0 0 0 0
-8.1391811 8.2541466 -0.64275038 4.0114555 0 0 0 0
-8.0798082 8.2522373 -0.67920417 4.4908314 0 0 0 0
-7.6115508 8.2404833 -0.66436177 12.531322 0 0 0 0
-7.424005 8.2422543 -0.65090662 16.753675 0 0 0 0
-6.0160317 8.2550745 -0.68993086 17 0 0 0 0
-5.7292566 8.2566652 -0.77689451 21.0791 0 0 0 0
-5.6401072 8.2647877 -0.72470844 18.234428 0 0 0 0
-5.144206 8.2937174 -0.80435038 8.8702431 0 0 0 0
-4.9491539 8.270503 -0.82429016 10.496487 0 0 0 0
-4.6003351 8.2745781 -0.80065024 8.0279207 0 0 0 0
-4.2262411 8.3700342 -0.69405484 2.8603694 0 0 0 0
-4.1856699 8.344614 -0.70817232 4.3917751 0 0 0 0
-3.8045881 8.3590794 -0.69732308 12.475321 0 0 0 0
-3.4618363 8.3078547 -0.76367855 11.577211 0 0 0 0
-3.2202289 8.2428055 -0.87234932 9.5 0 0 0 0
-2.7638428 8.185297 -0.89339948 1.6679688 0 0 0 0
-2.5097361 8.3273964 -0.81121856 7.5713806 0 0 0 0
-2.3049684 8.3138828 -0.82100296 13.524836 0 0 0 0
-1.9086423 8.3036461 -0.83195579 11.368444 0 0 0 0
-1.6698694 8.3021526 -0.82379991 8.2197609 0 0 0 0
-1.2463096 8.2938995 -0.86138558 13.605541 0 0 0 0
-1.1278793 8.2669258 -0.85578382 10.378108 0 0 0 0
0.2931419 8.3403606 -0.81192291 9.0799389 0 0 0 0
0.35010701 8.3569031 -0.79286063 6.0220823 0 0 0 0
0.81819814 8.313055 -0.83489811 12.8839 0 0 0 0
1.1150706 8.3167095 -0.85702759 19.022556 0 0 0 0
1.3319029 8.3086357 -0.87269622 17.875122 0 0 0 0
1.7044402 8.324667 -0.86243832 9.8178406 0 0 0 0
1.927827 8.3045807 -0.87143135 7.9774003 0 0 0 0
2.2810931 8.3239517 -0.86168343 5.1578503 0 0 0 0
2.5584898 8.327713 -0.83883774 7.6807494 0 0 0 0
2.7938132 8.310214 -0.85526717 10.057819 0 0 0 0
3.0517108 8.3406277 -0.86610973 1.2812405 0 0 0 0
3.5136154 8.3886795 -0.7587961 2.5177901 0 0 0 0
3.8686202 8.3745651 -0.8341794 4.4038787 0 0 0 0
3.9256177 8.3591175 -0.85738993 5.4090528 0 0 0 0
4.2789326 8.3667793 -0.84621555 4.2666626 0 0 0 0
4.7342119 8.3565598 -0.86466479 2.6098781 0 0 0 0
4.8240585 8.3245201 -0.88786578 4.6587744 0 0 0 0
5.3104873 8.3405037 -0.88589019 8.2604752 0 0 0 0
5.5124164 8.3380852 -0.87531507 6.8406334 0 0 0 0
5.791954 8.3305416 -0.87616616 6.2447872 0 0 0 0
6.2762814 8.353591 -0.88327497 3.3143728 0 0 0 0
6.363513 8.3847361 -0.85847592 2.1641462 0 0 0 0
6.8544278 8.3792324 -0.85867202 3.2798092 0 0 0 0
7.0920053 8.3896217 -0.85212892 3.8115261 0 0 0 0
7.3490014 8.376955 -0.847803 4.7971153 0 0 0 0
7.7473478 8.3742971 -0.8775115 3.5927162 0 0 0 0
7.8246574 8.3730936 -0.86564088 2.949048 0 0 0 0
8.1080475 8.3666801 -0.84902954 1.53125 0 0 0 0
13.85104 8.3749256 -0.87187576 2 0 0 0 0
14.610545 8.187933 -0.64706737 42.730419 0 0 0 0
14.766272 8.1655083 -0.72233588 31.265011 0 0 0 0
15.11612 8.1176682 -0.87304884 18.841885 0 0 0 0
-11.159592 8.5158958 -0.65652537 3.2083001 0 0 0 0
-11.063446 8.5630283 -0.65381289 7.2992067 0 0 0 0
-9.4397106 8.4852219 -0.86847973 1.5 0 0 0 0
-9.131259 8.5316572 -0.86502564 1.2636719 0 0 0 0
-8.7830286 8.5726862 -0.70812917 3.0444968 0 0 0 0
-8.4931173 8.4453278 -0.74354213 6.2652235 0 0 0 0
-7.2410107 8.5128899 -0.64651132 3.1666667 0 0 0 0
-5.721168 8.4977674 -0.69836819 3.5 0 0 0 0
-5.5765996 8.4376926 -0.65562236 3.59993 0 0 0 0
-5.1634007 8.464407 -0.75716627 1.157295 0 0 0 0
-5.0340891 8.4494238 -0.75483829 1.2402878 0 0 0 0
-4.5603714 8.4563017 -0.6012634 1.0625 0 0 0 0
-4.2160616 8.4508247 -0.6397146 1.703125 0 0 0 0
-4.008256 8.4367428 -0.67917931 4.9614816 0 0 0 0
-3.7372205 8.4356365 -0.70779753 8.9657297 0 0 0 0
-3.491673 8.4391499 -0.70028985 2.5585606 0 0 0 0
-2.5450196 8.4392719 -0.69618928 4.1379833 0 0 0 0
-2.3089316 8.4569044 -0.66148508 1.9292991 0 0 0 0
-1.9829311 8.4435902 -0.61264133 3.2600498 0 0 0 0
-1.7244244 8.4540672 -0.61716622 2.5805504 0 0 0 0
-1.256189 8.4540758 -0.60251629 2.4112453 0 0 0 0
-1.1602019 8.4735346 -0.6159119 0.61247575 0 0 0 0
0.28422767 8.4466801 -0.76093316 3.1000733 0 0 0 0
0.37322184 8.4302807 -0.74161029 2.7903099 0 0 0 0
0.80892134 8.4248848 -0.80561137 2.25 0 0 0 0
1.0638617 8.4225597 -0.8040396 2.5 0 0 0 0
1.2933148 8.4099274 -0.80496365 3.5942383 0 0 0 0
1.6634732 8.4502945 -0.6384899 4.143362 0 0 0 0
2.002048 8.4418545 -0.79475701 2.0776215 0 0 0 0
2.1433349 8.48246 -0.79468477 1.9950329 0 0 0 0
2.5424604 8.4771118 -0.78830242 1.6558437 0 0 0 0
2.8654857 8.4277315 -0.7661159 1.5604739 0 0 0 0
3.1286054 8.4705429 -0.77544904 0.75119507 0 0 0 0
3.5067511 8.4466019 -0.6929642 1.4351172 0 0 0 0
3.8317604 8.4780998 -0.71765363 1.1860459 0 0 0 0
3.9514253 8.4375114 -0.73867035 3.6101151 0 0 0 0
4.335639 8.4392567 -0.79333854 2.0606592 0 0 0 0
4.6706066 8.4147625 -0.82309771 1.8944484 0 0 0 0
5.0121746 8.4388018 -0.83605176 2.4502892 0 0 0 0
5.2444983 8.417078 -0.83562052 2.1750236 0 0 0 0
5.6549454 8.4336433 -0.80426037 2.2207708 0 0 0 0
5.8022022 8.5042629 -0.76207089 1.0935639 0 0 0 0
6.2359629 8.489852 -0.7939896 1.0002003 0 0 0 0
6.4544973 8.5012331 -0.78419662 0.85345602 0 0 0 0
6.7820859 8.4902983 -0.78305936 1.1656233 0 0 0 0
7.0805554 8.5195818 -0.77705348 1.1235943 0 0 0 0
7.3825097 8.4494333 -0.78591001 3.4439723 0 0 0 0
7.623435 8.4212999 -0.80038202 4.0356073 0 0 0 0
7.9051085 8.4701576 -0.79522502 2.4156086 0 0 0 0
8.1195335 8.5409565 -0.75029635 1 0 0 0 0
12.779597 8.6754723 -0.64128917 2.4891734 0 0 0 0
13.149534 8.5083294 -0.62038517 2.6934366 0 0 0 0
13.372717 8.5308132 -0.65802324 2.3233249 0 0 0 0
13.634566 8.527647 -0.63033438 2.066437 0 0 0 0
14.661547 8.647356 -0.64889944 9.9664278 0 0 0 0
14.787848 8.5524483 -0.79622829 9.3545046 0 0 0 0
-11.116334 8.9453316 -0.62610173 17 0 0 0 0
-11.000364 8.9501667 -0.6330868 14 0 0 0 0
-8.7163591 8.732645 -0.7348206 2.78125 0 0 0 0
-8.6689472 8.7180767 -0.74438965 3.8261719 0 0 0 0
-5.5880327 8.9637823 -0.73875463 2.5446949 0 0 0 0
7.9594111 8.758667 -0.76825142 6.3287001 0 0 0 0
12.793659 8.7787066 -0.64886403 2.2581072 0 0 0 0
14.660375 8.8004713 -0.62277138 16.171261 0 0 0 0
14.719736 8.8896074 -0.68453515 13.353775 0 0 0 0
-11.119749 9.1892881 -0.6917851 11.356558 0 0 0 0
-10.959852 9.2156029 -0.67148077 8.5013733 0 0 0 0
-5.5834007 9.1200333 -0.74427068 3.0200739 0 0 0 0
8.0260754 9.2707901 -0.79131961 1.7811892 0 0 0 0
8.1194344 9.2313604 -0.7334916 1 0 0 0 0
14.676117 9.0142899 -0.64548999 9.25 0 0 0 0
14.914022 9.1947021 -0.6910761 17.651003 0 0 0 0
15.070158 9.2788391 -0.65580618 31.161009 0 0 0 0
-11.115752 9.4270058 -0.67223871 9.8023739 0 0 0 0
-11.022644 9.4284248 -0.63914049 14.359584 0 0 0 0
-5.5830913 9.3605347 -0.73708594 3.1545935 0 0 0 0
8.0200262 9.4520035 -0.82030809 3.201859 0 0 0 0
14.64158 9.4987478 -0.65305614 7.8120661 0 0 0 0
14.818483 9.4025135 -0.72485828 5.0940309 0 0 0 0
15.143311 9.3966312 -0.63661671 15.41445 0 0 0 0
-11.118483 9.718029 -0.77059197 10.296164 0 0 0 0
-11.033319 9.7687244 -0.75646913 15.488701 0 0 0 0
-5.5800905 9.6522322 -0.75763887 2.3490314 0 0 0 0
8.0257034 9.825799 -0.82313311 3.8967814 0 0 0 0
8.1151791 9.7564945 -0.73575413 1 0 0 0 0
10.321543 9.8393803 -0.84032965 13 0 0 0 0
14.638774 9.6301918 -0.70140994 5.984375 0 0 0 0
-11.106833 9.9700565 -0.81928062 9.3914661 0 0 0 0
-11.077884 10.1306 -0.79703343 12.968839 0 0 0 0
-5.6175661 10.103352 -0.78634894 1.0204284 0 0 0 0
8.0109043 9.9520264 -0.85572231 5.5468388 0 0 0 0
10.297128 10.157126 -0.71880096 5.7658954 0 0 0 0
14.642491 9.9291306 -0.74674994 3 0 0 0 0
-11.125242 10.340746 -0.694484 11.730946 0 0 0 0
-11.017178 10.300219 -0.8347913 12.69662 0 0 0 0
-5.5935912 10.404146 -0.76921248 1.5168462 0 0 0 0
8.0335236 10.416306 -0.8700099 3.4601278 0 0 0 0
8.1121397 10.395199 -0.86236179 1.0625 0 0 0 0
10.195971 10.459149 -0.87878984 5 0 0 0 0
10.286852 10.274177 -0.80421257 6.3464069 0 0 0 0
-11.123543 10.678872 -0.66418815 10.487865 0 0 0 0
-11.059202 10.647512 -0.7762596 5.7791252 0 0 0 0
-5.6022863 10.586382 -0.80030471 1.0317383 0 0 0 0
8.045208 10.562337 -0.8635608 2.0931098 0 0 0 0
10.353458 10.682066 -0.79555511 3.2834113 0 0 0 0
-11.135223 10.893994 -0.64335334 2.7134678 0 0 0 0
-11.069772 10.806812 -0.69631648 5 0 0 0 0
10.426479 10.929476 -0.68508142 1.959453 0 0 0 0
10.511129 10.868736 -0.66721392 2 0 0 0 0
10.452936 11.132218 -0.61978555 2.4022827 0 0 0 0
7.8530145 13.479377 -0.7818867 2 0 0 0 0
-14.018108 13.738128 -0.72763216 5 0 0 0 0
7.1716814 13.694004 -0.70844281 12.740833 0 0 0 0
7.2674408 13.637926 -0.67743874 14.70752 0 0 0 0
7.6840734 13.559216 -0.67740911 12.042845 0 0 0 0
7.8352079 13.559502 -0.68140775 2.6992273 0 0 0 0
7.1839833 13.89365 -0.68641353 7.6183467 0 0 0 0
7.2120323 13.951265 -0.72691524 8.7041664 0 0 0 0
13.25576 13.926399 -0.88792348 6.1923523 0 0 0 0
7.160409 14.142142 -0.71168482 4.8047276 0 0 0 0
13.266133 14.246742 -0.81512129 2.875 0 0 0 0
13.991166 15.067284 -0.81671292 2.25 0 0 0 0
13.943577 15.815386 -0.89574248 4 0 0 0 0
13.616596 16.077394 -0.75055552 4.5546875 0 0 0 0
13.9587 15.980885 -0.87817037 3.2109375 0 0 0 0
13.729858 16.306778 -0.80453312 7 0 0 0 0
13.965204 16.432747 -0.85200715 4.4007568 0 0 0 0
13.954041 16.541615 -0.85656023 5.1826172 0 0 0 0
13.948509 16.976107 -0.8694526 3.5 0 0 0 0
13.970297 17.35681 -0.86623633 4.34375 0 0 0 0
14.00865 17.533432 -0.83755302 4.9283853 0 0 0 0
13.713531 17.898411 -0.87462497 4.1240234 0 0 0 0
13.914068 17.889317 -0.84518027 3.25 0 0 0 0
13.702943 18.04332 -0.87785602 4.375 0 0 0 0
14.634486 18.778011 -0.88981056 4.6875 0 0 0 0
14.685504 19.473986 -0.60073227 4 0 0 0 0
14.751119 19.435499 -0.8957625 5 0 0 0 0
14.611374 19.651463 -0.62421 5.3125 0 0 0 0
14.714159 19.530842 -0.621773 3 0 0 0 0
14.558316 19.883465 -0.63997567 5.765625 0 0 0 0
14.639639 20.358959 -0.62561733 5.0625 0 0 0 0
14.628813 20.471455 -0.65675271 3.75 0 0 0 0
14.845401 20.948254 -0.77629757 7.5 0 0 0 0
14.657746 21.117275 -0.63596177 5.03125 0 0 0 0
14.791771 21.085035 -0.62878817 6.5800781 0 0 0 0
15.05155 21.095839 -0.63964576 4 0 0 0 0
14.60824 21.418573 -0.6553632 5.7080078 0 0 0 0
14.614356 21.79677 -0.64638686 6.25 0 0 0 0
13.679423 21.985855 -0.64278221 5.2416992 0 0 0 0
14.639312 21.955196 -0.61970997 6 0 0 0 0
14.59451 22.421093 -0.62322378 6.8769064 0 0 0 0
14.778443 22.364954 -0.62477791 7 0 0 0 0
14.594128 22.626785 -0.63046563 5.9138184 0 0 0 0
14.59927 23.042122 -0.64968175 6.875 0 0 0 0
14.712321 23.388737 -0.66922939 6 0 0 0 0
15.101836 24.737644 -0.73374724 8.25 0 0 0 0
15.055621 25.019268 -0.70425886 7.25 0 0 0 0
15.176125 25.456505 -0.64772797 4.5 0 0 0 0
2.3371212 28.060135 -0.67773181 7 0 0 0 0
0.61521262 28.794846 -0.64579678 10 0 0 0 0
-13.820032 28.902002 -0.60824805 9 0 0 0 0
-14.748833 29.624504 -0.69872439 14.28125 0 0 0 0
-14.566735 29.630806 -0.68657577 13.125 0 0 0 0
-14.27602 29.644953 -0.65549231 12.664963 0 0 0 0
-14.663583 29.721437 -0.66853958 11 0 0 0 0
-14.196497 29.726015 -0.60857201 12.75 0 0 0 0
-13.974664 29.832653 -0.63264519 11.152222 0 0 0 0
-13.907759 30.024216 -0.65469027 11.5 0 0 0 0
-13.780628 30.067137 -0.64425421 9 0 0 0 0
-5.4002371 -8.1917839 -0.53768528 5 0 0 0 0
-5.1891961 -8.2163191 -0.53764045 1.5703125 0 0 0 0
-4.9550362 -8.1965628 -0.54882628 4.2804503 0 0 0 0
-4.6034021 -8.1747627 -0.42785656 8.5849619 0 0 0 0
-4.3549471 -8.205759 -0.52575314 4.1525545 0 0 0 0
-4.1246109 -8.2102375 -0.56040347 11.249177 0 0 0 0
-3.7202229 -8.2002373 -0.47352281 6.0806694 0 0 0 0
-3.3701327 -8.2116776 -0.42230713 8.8582106 0 0 0 0
-3.1625893 -8.1964731 -0.52041948 20.749853 0 0 0 0
-2.9239397 -8.1851053 -0.50863224 7.924057 0 0 0 0
-2.4454758 -8.1795378 -0.43103009 4.8914185 0 0 0 0
-2.2045493 -8.1894522 -0.40016985 11.065667 0 0 0 0
0.24785633 -8.1726952 -0.51722682 5.3999286 0 0 0 0
0.43951845 -8.1590042 -0.5224368 9.5461321 0 0 0 0
0.7654053 -8.1587429 -0.53797758 12.559358 0 0 0 0
1.0772182 -8.1563759 -0.5096674 14.59924 0 0 0 0
1.2644535 -8.1606703 -0.45648468 18.228041 0 0 0 0
1.7751359 -8.1547079 -0.45781183 18.075712 0 0 0 0
1.925427 -8.1471062 -0.43186846 17.88965 0 0 0 0
2.2972782 -8.1511593 -0.4800663 15.386538 0 0 0 0
2.4654026 -8.1494064 -0.367791 17.978186 0 0 0 0
2.8335507 -8.140214 -0.49252763 18.021881 0 0 0 0
3.2795141 -8.1368752 -0.44362846 17.744967 0 0 0 0
3.3555465 -8.1373606 -0.36482853 18.647526 0 0 0 0
3.6656296 -8.1308622 -0.46125197 17.244917 0 0 0 0
4.0965872 -8.1216984 -0.41540289 15.303589 0 0 0 0
4.3588533 -8.1215057 -0.42486262 16.619488 0 0 0 0
4.7839975 -8.1194649 -0.37764335 19.417854 0 0 0 0
4.8456221 -8.1182117 -0.35539991 19.423294 0 0 0 0
5.2896838 -8.1200609 -0.35694814 21.744766 0 0 0 0
5.5338106 -8.1147909 -0.41364199 11.593061 0 0 0 0
5.9010653 -8.1072931 -0.38423491 21.291737 0 0 0 0
6.1446042 -8.1080189 -0.39085919 20.746544 0 0 0 0
6.544867 -8.112113 -0.42754155 17.348577 0 0 0 0
6.697042 -8.1086702 -0.35576838 20.735182 0 0 0 0
6.9929247 -8.1049252 -0.47356665 20.640419 0 0 0 0
7.3321495 -8.145833 -0.37598217 14.752509 0 0 0 0
7.7533751 -8.2351131 -0.34979647 5.4438844 0 0 0 0
7.8170071 -8.2314053 -0.38257825 9.9091873 0 0 0 0
8.2626972 -8.2589779 -0.42427099 2.8330092 0 0 0 0
8.5172167 -8.2283878 -0.43674272 6.0325823 0 0 0 0
8.8502989 -8.2704659 -0.35225433 2.9358122 0 0 0 0
9.255146 -8.2186909 -0.36810365 9.4303217 0 0 0 0
9.3451948 -8.2034664 -0.31749782 7.619792 0 0 0 0
9.675787 -8.2569237 -0.36191547 1.25 0 0 0 0
11.243634 -8.1997747 -0.46154267 1.5 0 0 0 0
11.499273 -8.1837139 -0.34349698 2.8997397 0 0 0 0
11.856713 -8.3246717 -0.31300652 1.0330404 0 0 0 0
12.146917 -8.2239075 -0.35136914 1.8189697 0 0 0 0
12.524902 -8.2499828 -0.37385434 2.1816406 0 0 0 0
12.797621 -8.2411213 -0.36029744 2.6586161 0 0 0 0
12.988911 -8.2405872 -0.3470481 5.7799459 0 0 0 0
13.322083 -8.2001228 -0.44546837 5.2889123 0 0 0 0
13.733276 -8.1897507 -0.43497714 2.5774264 0 0 0 0
13.868709 -8.2278509 -0.35126704 2.9465666 0 0 0 0
14.301037 -8.2334948 -0.47702605 2.2118514 0 0 0 0
14.464916 -8.2127285 -0.38088915 2.679054 0 0 0 0
14.809153 -8.2103605 -0.42787823 2.7453008 0 0 0 0
15.143286 -8.1988697 -0.44421178 2.5042193 0 0 0 0
15.403769 -8.1939774 -0.38939631 2.7200041 0 0 0 0
15.81634 -8.1768131 -0.52914929 2.9420848 0 0 0 0
16.059509 -8.2143078 -0.41889226 2.2509866 0 0 0 0
16.224739 -8.2286377 -0.5017966 2.7299552 0 0 0 0
16.768547 -8.1851311 -0.44261903 2.9912081 0 0 0 0
16.937122 -8.2238636 -0.48401827 2.1273768 0 0 0 0
17.227991 -8.192894 -0.41173786 5.6732655 0 0 0 0
17.500782 -8.1778526 -0.50363171 4.4167557 0 0 0 0
17.914127 -8.2223673 -0.50578982 2.2929595 0 0 0 0
18.086945 -8.2153721 -0.48491809 2.6352558 0 0 0 0
18.485126 -8.1770821 -0.4645454 2.7556131 0 0 0 0
18.654871 -8.19664 -0.49543023 2.832129 0 0 0 0
-2.831656 -8.0243645 -0.57041508 4.4857087 0 0 0 0
-2.6871331 -8.0361805 -0.58056831 4.145833 0 0 0 0
3.2703285 -8.0994453 -0.59939814 9.833333 0 0 0 0
3.6955109 -8.0979652 -0.43766403 14 0 0 0 0
4.0757465 -8.0945549 -0.58161414 10.382576 0 0 0 0
4.3224101 -8.0911694 -0.50588703 12.41875 0 0 0 0
4.7108412 -8.0941277 -0.41593367 15.1 0 0 0 0
4.8702497 -8.0965757 -0.41194278 14.708333 0 0 0 0
5.2395477 -8.0917177 -0.37620854 13.923744 0 0 0 0
5.5320673 -8.0988178 -0.44697976 16.411707 0 0 0 0
5.9136686 -8.0941067 -0.41517916 15.020794 0 0 0 0
6.163969 -8.098671 -0.39757216 20.112705 0 0 0 0
6.5322104 -8.099102 -0.44949681 13.804493 0 0 0 0
6.7481971 -8.0938377 -0.36763087 12.574691 0 0 0 0
7.0391521 -8.0973988 -0.50885469 17.354536 0 0 0 0
7.3291912 -8.0958138 -0.32240909 7.4389362 0 0 0 0
13.29706 -8.0967674 -0.485333 4 0 0 0 0
15.424674 -8.0617533 -0.59624517 2 0 0 0 0
17.340992 -8.0815735 -0.43305898 5.5898438 0 0 0 0
17.490765 -8.0906563 -0.34226722 4 0 0 0 0
17.779404 -8.0817633 -0.5949176 3 0 0 0 0
14.987094 -7.2420545 -0.33402744 43 0 0 0 0
15.194301 -7.2572665 -0.55422622 34 0 0 0 0
6.9758835 -6.6078258 -0.43673864 0.43945181 0 0 0 0
7.8240299 -6.651453 -0.31029677 1.5 0 0 0 0
15.515528 -6.6389055 -0.50203109 47.422977 0 0 0 0
15.624908 -6.8159375 -0.46766543 2 0 0 0 0
6.840889 -6.4167261 -0.32780707 1.0015473 0 0 0 0
7.0752487 -6.4264536 -0.39938253 2.2500598 0 0 0 0
7.3511105 -6.3080931 -0.50304377 0.6209895 0 0 0 0
7.6046586 -6.4168582 -0.30415693 2 0 0 0 0
15.525226 -6.4362793 -0.44502568 46.307117 0 0 0 0
0.16397411 -6.0128493 -0.34749013 2.5 0 0 0 0
6.7637458 -6.1900029 -0.31186974 1.6971511 0 0 0 0
7.0189581 -6.1201849 -0.32674673 8.869791 0 0 0 0
7.3389997 -6.0816774 -0.52106076 10.461114 0 0 0 0
15.269444 -6.0584669 -0.44921091 9.4126301 0 0 0 0
15.472702 -6.2158332 -0.49772605 13.422056 0 0 0 0
23.820213 -6.0001316 -0.52522612 5 0 0 0 0
0.071109563 -5.8747416 -0.3850143 3.8716538 0 0 0 0
6.7266073 -5.8719816 -0.31151241 7.0554314 0 0 0 0
6.9875774 -5.7772398 -0.3582716 9.4658413 0 0 0 0
7.4342966 -5.7432556 -0.40015882 21.955498 0 0 0 0
7.5270624 -5.7295475 -0.38726223 13.783594 0 0 0 0
7.9559774 -5.7316585 -0.36154908 2.3916016 0 0 0 0
8.2336712 -5.7717991 -0.3040207 2.9934692 0 0 0 0
8.4025307 -5.8251762 -0.30303541 1 0 0 0 0
15.260361 -5.8533936 -0.44085041 12.150256 0 0 0 0
15.318941 -5.8801837 -0.3838017 10.901351 0 0 0 0
21.886646 -5.7373838 -0.53855789 10.521252 0 0 0 0
21.911697 -5.7608051 -0.58459085 11.5 0 0 0 0
23.919842 -5.9282541 -0.54578567 5.461174 0 0 0 0
24.21842 -5.8750367 -0.54800022 6.4760227 0 0 0 0
24.41917 -5.9422026 -0.55347073 6.2964334 0 0 0 0
24.682125 -5.9145908 -0.54459393 5.7960777 0 0 0 0
25.035107 -5.9430037 -0.56943238 5.4855838 0 0 0 0
25.33601 -5.9383144 -0.54778671 6.1174622 0 0 0 0
25.733196 -5.9130335 -0.48182696 5.762207 0 0 0 0
25.958212 -5.9439654 -0.37032944 5.8684673 0 0 0 0
26.149551 -5.9197559 -0.48565602 6.0108604 0 0 0 0
26.569803 -5.9116478 -0.39968958 6.4615684 0 0 0 0
26.934935 -5.9155207 -0.40947771 7.523654 0 0 0 0
27.068909 -5.9054737 -0.51805913 6.9503779 0 0 0 0
27.513454 -5.9165573 -0.44619218 8.0066681 0 0 0 0
27.808372 -5.9021268 -0.52006936 6.9968634 0 0 0 0
28.026077 -5.9277811 -0.42835712 7.5956583 0 0 0 0
28.344379 -5.9091558 -0.45441604 7.4134827 0 0 0 0
28.677095 -5.9147043 -0.4322927 7.9806542 0 0 0 0
28.864624 -5.9080086 -0.4357053 7.652997 0 0 0 0
29.287479 -5.8886433 -0.44894481 6.8066206 0 0 0 0
29.601189 -5.9135666 -0.3824389 8.3732243 0 0 0 0
29.873127 -5.9245272 -0.40203452 8.302721 0 0 0 0
30.172857 -5.8852282 -0.49867871 9.2934647 0 0 0 0
30.361115 -5.8982258 -0.51115513 8.9019403 0 0 0 0
30.673988 -5.9051332 -0.48596886 7.1675014 0 0 0 0
31.130159 -5.8982596 -0.46283662 8.4960938 0 0 0 0
31.358444 -5.9094305 -0.46062237 9.1757812 0 0 0 0
31.757412 -5.9157276 -0.37327933 8.625 0 0 0 0
32.005707 -5.8434176 -0.47297013 15.976562 0 0 0 0
-15.303329 -5.4779873 -0.34488949 13.3125 0 0 0 0
-15.255734 -5.4350424 -0.34721076 25.358562 0 0 0 0
-14.910553 -5.4366584 -0.33599928 4.1113281 0 0 0 0
0.18282568 -5.6667204 -0.34409779 2.5 0 0 0 0
0.58916628 -5.5532708 -0.30047432 1 0 0 0 0
6.779171 -5.6383739 -0.31554258 6.3258238 0 0 0 0
7.0243788 -5.6062994 -0.33416969 21.809547 0 0 0 0
7.4245653 -5.6727991 -0.37584692 24.412092 0 0 0 0
7.7563162 -5.6637182 -0.43646726 3.0654917 0 0 0 0
7.9725056 -5.6600885 -0.4369016 1.0408465 0 0 0 0
8.223794 -5.5014577 -0.30604142 1.9375 0 0 0 0
8.4003592 -5.6183758 -0.310114 1 0 0 0 0
15.289092 -5.6876879 -0.44445908 33.75 0 0 0 0
15.3501 -5.6665015 -0.49098912 9.0588408 0 0 0 0
21.89378 -5.6907287 -0.52436906 16 0 0 0 0
21.944324 -5.6917028 -0.55403972 10.578125 0 0 0 0
-15.310139 -5.3359098 -0.34721333 46.375 0 0 0 0
-15.257372 -5.3452005 -0.35477966 60.091644 0 0 0 0
-14.880692 -5.3958297 -0.3265588 4 0 0 0 0
-14.149511 -5.23107 -0.36707324 3.877712 0 0 0 0
-14.018181 -5.2324309 -0.34656298 5.9896588 0 0 0 0
-13.706535 -5.2427664 -0.36461985 8.0445871 0 0 0 0
-13.248016 -5.2383394 -0.49067315 5.9043517 0 0 0 0
-13.164179 -5.2444339 -0.53090727 5.5074306 0 0 0 0
-12.668221 -5.2225847 -0.46506271 4.2762299 0 0 0 0
-12.339525 -5.2195625 -0.54247582 5.4765143 0 0 0 0
-12.17325 -5.2240119 -0.4714351 8.3367071 0 0 0 0
-11.833923 -5.2231073 -0.4909938 5.0841937 0 0 0 0
-11.490257 -5.2070026 -0.48207384 17.336067 0 0 0 0
-11.294996 -5.2132916 -0.53003943 17.209343 0 0 0 0
-10.903421 -5.2078028 -0.4658837 22.054924 0 0 0 0
-10.698454 -5.1619987 -0.5252775 17.428444 0 0 0 0
-10.329058 -5.2001143 -0.51204836 21.023922 0 0 0 0
-10.122412 -5.2108541 -0.56287491 20.083822 0 0 0 0
-9.7262115 -5.2252855 -0.44523385 2.1556997 0 0 0 0
-9.4342575 -5.1982899 -0.46547744 24.166906 0 0 0 0
-9.1166325 -5.199955 -0.48770115 25.072826 0 0 0 0
-8.8374605 -5.1914439 -0.37238768 28.352121 0 0 0 0
-8.6344872 -5.2061524 -0.51387036 29.257059 0 0 0 0
-8.1826992 -5.2309875 -0.48065466 29.753866 0 0 0 0
0.10487403 -5.147274 -0.3023403 0.5 0 0 0 0
0.30034241 -5.2478552 -0.30426741 0.5 0 0 0 0
6.8922167 -5.3819885 -0.36380002 8.3125 0 0 0 0
7.0509291 -5.3295755 -0.31996286 11.78813 0 0 0 0
7.3513775 -5.1121874 -0.32931107 3.4965079 0 0 0 0
7.5792193 -5.2650476 -0.37208435 5.3957171 0 0 0 0
7.9240508 -5.1264277 -0.33137959 1.1445962 0 0 0 0
8.1503744 -5.3798122 -0.30391842 2.125 0 0 0 0
-11.904404 -5.0970526 -0.55058587 7.5 0 0 0 0
-11.037741 -5.0777702 -0.58831322 7 0 0 0 0
-9.8141384 -4.987433 -0.58097738 12 0 0 0 0
-9.0613632 -5.0163503 -0.59070909 1 0 0 0 0
7.3824892 -5.0938778 -0.32158011 5.1583142 0 0 0 0
7.7324305 -5.0698128 -0.32280093 1.7087688 0 0 0 0
7.8837953 -5.0892029 -0.31187093 1.3286505 0 0 0 0
12.869606 -3.3114417 -0.44957823 2.3844223 0 0 0 0
12.972897 -3.3095493 -0.4601858 3.8086853 0 0 0 0
13.214141 -3.3113322 -0.37330085 2 0 0 0 0
-14.172256 -3.2029314 -0.34438169 6.3046875 0 0 0 0
-13.657572 -3.1536865 -0.31998077 1.2307816 0 0 0 0
-13.468527 -3.0399144 -0.32650164 1.25 0 0 0 0
-7.5655413 -3.0962129 -0.30819061 0.79376519 0 0 0 0
-7.4934034 -3.0197673 -0.3120679 1.2038574 0 0 0 0
2.3328009 -3.2060606 -0.33903217 20.073494 0 0 0 0
2.6129537 -3.1992252 -0.30664283 18.408848 0 0 0 0
12.850353 -3.1602693 -0.50324082 3.7745645 0 0 0 0
13.028531 -3.1623156 -0.40889028 3.6754692 0 0 0 0
13.216115 -3.2079849 -0.33566302 2.3573186 0 0 0 0
-13.469271 -2.9905453 -0.34129947 1 0 0 0 0
-7.9873161 -2.7265863 -0.3635667 12.321627 0 0 0 0
-7.423667 -2.914834 -0.3224448 1.1704186 0 0 0 0
-1.2422889 -2.8543303 -0.32352763 8.666667 0 0 0 0
-1.0439272 -2.8659151 -0.30242246 19.916668 0 0 0 0
2.668242 -2.7628608 -0.31796926 19.888912 0 0 0 0
2.7136047 -2.8681114 -0.31601965 3.7709122 0 0 0 0
3.2784123 -2.7361073 -0.33029675 9.931673 0 0 0 0
3.3632631 -2.7273669 -0.36496007 12.421509 0 0 0 0
3.7173953 -2.7135987 -0.31181997 1.1469058 0 0 0 0
4.1137538 -2.7131844 -0.30921552 0.5616048 0 0 0 0
4.2955656 -2.7225761 -0.30709672 0.16210938 0 0 0 0
4.6156101 -2.7289095 -0.31075916 0.25 0 0 0 0
5.0360832 -2.7184205 -0.31533438 0.75 0 0 0 0
5.2938676 -2.7109137 -0.31991857 0.71875 0 0 0 0
5.4329638 -2.7531431 -0.32039744 0 0 0 0 0
6.0610218 -2.7106411 -0.31959486 0 0 0 0 0
7.4658909 -2.7015355 -0.36768025 0 0 0 0 0
12.85445 -2.9930115 -0.47948998 4.1713295 0 0 0 0
13.004995 -2.9911747 -0.44950569 3.9590487 0 0 0 0
13.205161 -2.9832149 -0.47183627 2.7414246 0 0 0 0
15.577435 -2.7642922 -0.36581501 53.330727 0 0 0 0
15.669267 -2.8392529 -0.40070736 2.9970636 0 0 0 0
-13.861023 -2.4687591 -0.50029111 4.625 0 0 0 0
-7.8974767 -2.5144989 -0.5758158 24.201344 0 0 0 0
-7.7558575 -2.5218477 -0.49562243 20.404427 0 0 0 0
-7.3292398 -2.6129444 -0.31378943 3.4618154 0 0 0 0
-1.6677196 -2.5995173 -0.30580771 19.5 0 0 0 0
-1.2129617 -2.4067712 -0.3303957 20.885416 0 0 0 0
-1.1048484 -2.4294038 -0.31365025 20.579424 0 0 0 0
-0.87411785 -2.4786952 -0.30783576 58.333336 0 0 0 0
2.6774626 -2.6676044 -0.31573665 22.980671 0 0 0 0
2.8250413 -2.6458843 -0.30826068 26.215229 0 0 0 0
3.2697508 -2.5408971 -0.40616187 25.550789 0 0 0 0
3.4974909 -2.5912097 -0.31958249 5.6378441 0 0 0 0
3.668287 -2.6551633 -0.30996263 1.5724761 0 0 0 0
4.0584884 -2.533164 -0.31560576 5.8569207 0 0 0 0
4.2793975 -2.6382012 -0.30910909 1.2185529 0 0 0 0
4.7074018 -2.4723387 -0.34665585 5.5634356 0 0 0 0
5.0258112 -2.4931693 -0.41653782 5.069437 0 0 0 0
5.1621499 -2.523458 -0.40958321 3.959938 0 0 0 0
5.645607 -2.4603364 -0.36724603 1.8110151 0 0 0 0
5.9314008 -2.6236694 -0.32936141 1.7917945 0 0 0 0
6.1574526 -2.5006833 -0.33369827 1.6407009 0 0 0 0
6.3569798 -2.5103555 -0.3304671 1.7302918 0 0 0 0
6.6499066 -2.5731149 -0.32354799 0.640625 0 0 0 0
7.1406269 -2.4340935 -0.48213285 13 0 0 0 0
7.3045845 -2.5539923 -0.32362288 23.651228 0 0 0 0
15.597755 -2.697921 -0.34090436 94 0 0 0 0
15.605699 -2.6918573 -0.44955862 93.5 0 0 0 0
-8.1749668 -2.1204684 -0.49706656 13.102051 0 0 0 0
-7.8897963 -2.3281767 -0.51057708 24.388416 0 0 0 0
-7.6021094 -2.2255626 -0.3908194 24.810583 0 0 0 0
-7.3320994 -2.2896881 -0.33379507 11.330108 0 0 0 0
-1.3084042 -2.3726659 -0.31064218 11.764639 0 0 0 0
-1.0493718 -2.3401384 -0.30299684 14.5 0 0 0 0
2.8691926 -2.268126 -0.30593523 52 0 0 0 0
3.2742257 -2.3827949 -0.39839983 25.843052 0 0 0 0
3.5806253 -2.3491035 -0.42747325 15.303083 0 0 0 0
3.7104475 -2.3502164 -0.49868453 15.954023 0 0 0 0
4.070363 -2.3414571 -0.46179107 12.725431 0 0 0 0
4.241291 -2.3478875 -0.52552235 12.350828 0 0 0 0
4.6337276 -2.2643156 -0.39786193 11.774681 0 0 0 0
5.0535154 -2.3291302 -0.46616879 8.337698 0 0 0 0
5.1591973 -2.2127142 -0.38805449 11.485229 0 0 0 0
5.6380944 -2.3236427 -0.47421443 5.2098002 0 0 0 0
5.8764553 -2.3191166 -0.4131707 3.9035506 0 0 0 0
6.0642967 -2.3159041 -0.44104707 2.9905941 0 0 0 0
6.559803 -2.3264141 -0.45208752 2.5887287 0 0 0 0
6.614954 -2.3031731 -0.46104553 2.2986956 0 0 0 0
7.0510783 -2.2679241 -0.35418969 23.902012 0 0 0 0
7.2734351 -2.2813969 -0.32462963 39.416859 0 0 0 0
-8.1852741 -2.0954375 -0.49626237 4.625 0 0 0 0
-8.0054159 -2.0463357 -0.44334787 27.666668 0 0 0 0
-7.5295796 -1.8966663 -0.32672906 6.1493754 0 0 0 0
-7.444212 -1.9321525 -0.32280141 8.1209421 0 0 0 0
2.388536 -1.8056434 -0.30777308 34 0 0 0 0
2.4351838 -1.9106654 -0.33155704 24.833332 0 0 0 0
4.6684794 -1.8941638 -0.4851796 16.993717 0 0 0 0
4.9521408 -2.0249336 -0.3644838 13.987323 0 0 0 0
5.2354321 -2.0300429 -0.34483582 16.352793 0 0 0 0
5.4230371 -2.0673728 -0.44350746 10 0 0 0 0
6.5330477 -1.9160521 -0.36419767 15.566006 0 0 0 0
6.6533251 -1.9604454 -0.39455086 25.336235 0 0 0 0
7.1878252 -1.8375204 -0.35380805 20.452127 0 0 0 0
7.3934412 -2.0357292 -0.361527 35.759003 0 0 0 0
7.5393066 -1.9596612 -0.3948403 10.806943 0 0 0 0
15.184414 -1.8235064 -0.31362835 35.6875 0 0 0 0
-17.549463 -1.5903646 -0.50841272 2 0 0 0 0
-8.5998421 -1.5130589 -0.48647422 11.418633 0 0 0 0
-8.0834818 -1.5884464 -0.59724033 32.5 0 0 0 0
-7.5726404 -1.75353 -0.31364208 5.359674 0 0 0 0
-7.3769341 -1.6809776 -0.31389931 5.75 0 0 0 0
-7.1235127 -1.5440058 -0.44464836 42.339977 0 0 0 0
6.5372715 -1.7539384 -0.35670537 20.918673 0 0 0 0
6.6125994 -1.7708249 -0.32184976 25.083332 0 0 0 0
7.1623249 -1.7885895 -0.3387683 12.822916 0 0 0 0
9.2792854 -1.5247538 -0.32258698 44.663795 0 0 0 0
9.3072567 -1.5515821 -0.33412379 22.607218 0 0 0 0
15.186884 -1.7115228 -0.32764089 30.592142 0 0 0 0
-9.335475 -1.2152025 -0.33742243 52 0 0 0 0
-8.6040659 -1.40606 -0.4191108 9.7480831 0 0 0 0
-8.266964 -1.2104785 -0.44730613 18.472969 0 0 0 0
-7.9760695 -1.2179297 -0.58541071 43.223335 0 0 0 0
-7.6603684 -1.3279707 -0.37720278 1.3386734 0 0 0 0
-7.3267183 -1.3077744 -0.36516747 2.8211181 0 0 0 0
-7.1075926 -1.4763269 -0.32801026 19.975861 0 0 0 0
8.9110069 -1.3833928 -0.46863279 46.536736 0 0 0 0
9.1455727 -1.436258 -0.32750797 43.542156 0 0 0 0
9.3431664 -1.4750723 -0.33344927 32.432632 0 0 0 0
9.855216 -1.2776364 -0.31140381 1.9570312 0 0 0 0
10.006094 -1.2862604 -0.30757275 1.7929688 0 0 0 0
10.311629 -1.28862 -0.30822849 2.3347545 0 0 0 0
10.58127 -1.280411 -0.31961799 3.4214935 0 0 0 0
10.881224 -1.2834809 -0.31260985 2.400177 0 0 0 0
11.36003 -1.2292826 -0.34845307 27.141214 0 0 0 0
11.408013 -1.2379348 -0.30688092 5 0 0 0 0
15.180521 -1.2839551 -0.32038471 37.371223 0 0 0 0
-9.3486567 -1.1262412 -0.49021432 33.172581 0 0 0 0
-8.4444847 -1.1943381 -0.49518245 1.5 0 0 0 0
-8.2107773 -1.0034769 -0.4476746 11.721344 0 0 0 0
-8.0612612 -1.0945451 -0.51139015 32.108429 0 0 0 0
-7.7230406 -1.1576521 -0.33375862 19.666666 0 0 0 0
-2.146827 -1.0482551 -0.30024078 62 0 0 0 0
8.8194704 -1.0631881 -0.47701171 44.695419 0 0 0 0
9.0475025 -1.1726415 -0.33419311 35.151787 0 0 0 0
11.364876 -1.1173573 -0.31897148 21.973307 0 0 0 0
11.404504 -1.0773308 -0.30489677 4.1289062 0 0 0 0
15.187872 -1.0796162 -0.32404995 34.685715 0 0 0 0
-9.4190407 -0.73107737 -0.4587675 41.551559 0 0 0 0
-9.1767473 -0.70103323 -0.53260869 35.798031 0 0 0 0
-8.1490173 -0.67526382 -0.55756474 25.720112 0 0 0 0
-8.048645 -0.67448294 -0.56682539 42.491585 0 0 0 0
8.8238316 -0.69335449 -0.44418412 43.449677 0 0 0 0
11.375628 -0.72233486 -0.31059247 17.799103 0 0 0 0
11.405601 -0.65737045 -0.31395125 14.766822 0 0 0 0
15.168941 -0.79248214 -0.30972525 44.825344 0 0 0 0
-9.493103 -0.52323258 -0.37498251 43.953125 0 0 0 0
-9.1419487 -0.41901326 -0.45245236 35.917305 0 0 0 0
-8.1417265 -0.51002508 -0.47181082 25.796503 0 0 0 0
-8.0722256 -0.40640357 -0.4118439 58.115417 0 0 0 0
-2.5485992 -0.432212 -0.31361067 31.6 0 0 0 0
-2.3649609 -0.45339268 -0.304308 42 0 0 0 0
8.8553886 -0.4585523 -0.33784011 9.3851871 0 0 0 0
11.387854 -0.52421165 -0.34469777 36.072445 0 0 0 0
11.409315 -0.5131216 -0.33941868 23.786762 0 0 0 0
15.174928 -0.3970446 -0.31755179 42.88887 0 0 0 0
-10.599688 -0.18835855 -0.51290178 9.5 0 0 0 0
-9.4090824 -0.23753749 -0.56084895 21.58075 0 0 0 0
-9.2848787 -0.28519255 -0.5065707 12 0 0 0 0
-8.1504087 -0.2326788 -0.55310953 19.332169 0 0 0 0
-8.0794516 -0.23181611 -0.51398492 24.737396 0 0 0 0
2.6346116 -0.11789888 -0.39012218 14.381041 0 0 0 0
2.7925084 -0.10379878 -0.39775747 14.547403 0 0 0 0
3.2158649 -0.082743064 -0.39900124 6.9630537 0 0 0 0
3.4727311 -0.13905032 -0.3961336 5.7900915 0 0 0 0
3.7654369 -0.058880515 -0.30959314 60.978027 0 0 0 0
8.907423 -0.065997422 -0.31461126 0.54107368 0 0 0 0
11.380173 -0.23177484 -0.34552532 35.266121 0 0 0 0
11.405085 -0.077655271 -0.32348102 24.133209 0 0 0 0
15.164847 -0.17217642 -0.32325163 46.003258 0 0 0 0
-7.9127016 0.13701692 -0.57816726 52.713654 0 0 0 0
-3.1105475 0.031707302 -0.31425026 20 0 0 0 0
-2.7529848 0.17003834 -0.33317065 4.7872405 0 0 0 0
-2.6993127 0.28741089 -0.34556454 18 0 0 0 0
2.6421683 0.053425521 -0.39200705 15.655478 0 0 0 0
2.8832226 0.26273948 -0.31265652 86.237282 0 0 0 0
3.2102106 0.064031571 -0.38921225 6.859045 0 0 0 0
3.4155598 0.12105483 -0.39539373 9.5387878 0 0 0 0
3.7597165 0.17679638 -0.31870711 75.566101 0 0 0 0
8.881813 0.044735663 -0.32297313 0.67137074 0 0 0 0
11.386893 0.22356412 -0.34452066 31.860992 0 0 0 0
11.412977 0.18003705 -0.31612974 18.493187 0 0 0 0
15.163952 0.15317836 -0.32104877 46.014214 0 0 0 0
-8.0154819 0.41063267 -0.58173728 11.25 0 0 0 0
-3.1249018 0.4809908 -0.32470354 12.206319 0 0 0 0
-2.7937713 0.37043053 -0.33853227 4.357676 0 0 0 0
-2.6919713 0.39119637 -0.37281233 24.757696 0 0 0 0
2.5934377 0.45534253 -0.40181398 24.146233 0 0 0 0
2.8751216 0.54607308 -0.36864328 47.72699 0 0 0 0
3.2075253 0.37233824 -0.34636351 9.0002699 0 0 0 0
3.4432967 0.51685017 -0.34930447 21.376106 0 0 0 0
3.7542405 0.4916718 -0.310574 92.395119 0 0 0 0
11.383001 0.32233864 -0.33130801 22.798822 0 0 0 0
11.416675 0.36794665 -0.32919738 14.429029 0 0 0 0
15.161998 0.44278049 -0.32739818 39.516205 0 0 0 0
-8.4020224 0.63452768 -0.58034289 66 0 0 0 0
