# .PCD v0.7 - Point Cloud Data file format
VERSION 0.7
FIELDS x y z intensity normal_x normal_y normal_z curvature
SIZE 4 4 4 4 4 4 4 4
TYPE F F F F F F F F
COUNT 1 1 1 1 1 1 1 1
WIDTH 1024
HEIGHT 1
VIEWPOINT 0 0 0 1 0 0 0
POINTS 1024
DATA ascii
4.6483469 8.419487 3.1104012 1.28125 0 0 0 0
4.9211388 8.4186993 3.0903063 1.9785328 0 0 0 0
5.3536906 8.4404259 3.0737746 1.3968506 0 0 0 0
5.4925346 8.4112873 3.1014552 3.7018228 0 0 0 0
5.8271914 8.4276199 3.0789917 1.1873826 0 0 0 0
6.0167079 8.437295 3.0891247 2.1257045 0 0 0 0
6.4878311 8.4469643 3.0719142 3.0156837 0 0 0 0
6.8176718 8.4229145 3.0647254 2.2383957 0 0 0 0
6.9807043 8.443367 3.0925281 2.3678541 0 0 0 0
7.3517756 8.4309826 3.0731573 4.0156775 0 0 0 0
7.7464714 8.4361477 3.0754766 6.4762902 0 0 0 0
8.0090504 8.496418 3.0882783 4.145813 0 0 0 0
8.277051 8.4272394 3.0412397 4.5025997 0 0 0 0
8.4357872 8.4681091 3.0894117 8.3998165 0 0 0 0
8.8668365 8.4229269 3.0540619 7.2413683 0 0 0 0
9.2245846 8.4478741 3.0470159 5.9114647 0 0 0 0
9.3603497 8.4424534 3.0591276 9.1767521 0 0 0 0
9.758399 8.438942 3.0629334 9.3823214 0 0 0 0
9.9363365 8.4641027 3.052243 3.3233895 0 0 0 0
12.249559 8.4444332 3.0331085 6.8828125 0 0 0 0
12.45427 8.4467421 3.0357382 6.8028264 0 0 0 0
12.858586 8.4238701 3.0468116 11.83046 0 0 0 0
13.091246 8.5938854 3.0558963 4.0652456 0 0 0 0
13.249004 8.5848122 3.0388572 3.2896905 0 0 0 0
13.632074 8.5463657 3.0339603 5.7908249 0 0 0 0
13.935101 8.5733051 3.035502 4.8495331 0 0 0 0
14.312996 8.577961 3.0347214 4.1295004 0 0 0 0
14.523951 8.5927896 3.0352526 3.8627386 0 0 0 0
14.81949 8.4883461 3.0200925 7.7328081 0 0 0 0
15.193176 8.4822607 3.0706263 27.421875 0 0 0 0
15.325711 8.6067219 3.0261359 48.131077 0 0 0 0
-11.138641 8.9828014 3.2845721 4.328125 0 0 0 0
-11.073908 8.9732323 3.2913332 12.274658 0 0 0 0
15.288744 8.7811871 3.0244565 23.20052 0 0 0 0
15.336883 8.8676701 3.0158582 45.693241 0 0 0 0
-11.120904 9.2393532 3.1567593 5.2845936 0 0 0 0
-10.896389 9.1652746 3.2618589 27.445436 0 0 0 0
8.0280685 9.1868458 3.2695894 5.1155128 0 0 0 0
8.1722164 9.2510843 3.238148 4.860868 0 0 0 0
10.150366 9.2549648 3.2750607 38.272598 0 0 0 0
10.272897 9.2472591 3.2467883 20.330349 0 0 0 0
15.356995 9.2237301 3.1242471 44.948929 0 0 0 0
-11.130007 9.4538507 3.0406747 4.0289011 0 0 0 0
-11.008017 9.3921108 3.1104095 15.958755 0 0 0 0
7.9664412 9.4093266 3.2223244 6.7494164 0 0 0 0
8.2394609 9.5259609 3.0977755 2.0188344 0 0 0 0
10.191041 9.4026775 3.2610462 38.372498 0 0 0 0
10.318228 9.3308048 3.2023087 14.347073 0 0 0 0
15.353338 9.5178099 3.167799 36.099178 0 0 0 0
-10.820854 9.7870064 3.1727819 50.424885 0 0 0 0
-10.772077 9.8280144 3.2766461 47.847778 0 0 0 0
7.9675584 9.6966934 3.0904169 4.6399198 0 0 0 0
8.1481972 9.6708689 3.0369525 4.135684 0 0 0 0
10.162998 9.7080479 3.1253524 42.562222 0 0 0 0
10.247231 9.7840662 3.0114236 25.45355 0 0 0 0
15.219352 9.812458 3.2948725 15.522025 0 0 0 0
15.353971 9.7786818 3.2232738 18.969696 0 0 0 0
-10.841387 10.088733 3.1231432 50.923698 0 0 0 0
-10.714445 10.170788 3.2435544 49.032856 0 0 0 0
7.9658728 10.13179 3.0903153 4.9299521 0 0 0 0
10.138937 10.065853 3.2431901 50.329948 0 0 0 0
10.239819 9.9575596 3.0247641 30.392578 0 0 0 0
15.260577 10.072901 3.2368612 15.390625 0 0 0 0
15.340322 9.9901047 3.1920059 12.032845 0 0 0 0
-10.826981 10.353301 3.1404176 48.464813 0 0 0 0
-10.735189 10.234756 3.2345288 48.78735 0 0 0 0
-10.355786 10.315728 3.2735481 33.257156 0 0 0 0
7.9486685 10.33769 3.0698519 5.2208419 0 0 0 0
8.9577484 10.442085 3.2556231 46.354382 0 0 0 0
9.2225494 10.431362 3.2667747 45.15332 0 0 0 0
9.3717766 10.407848 3.2698741 49.415493 0 0 0 0
9.7907982 10.42869 3.2776718 46.110191 0 0 0 0
10.139893 10.288769 3.0620186 42.725052 0 0 0 0
15.227888 10.359293 3.2807608 18.739843 0 0 0 0
15.35185 10.288265 3.2572298 14.928663 0 0 0 0
-14.228909 10.783909 3.2664666 12 0 0 0 0
-10.820478 10.615203 3.0847538 48.673576 0 0 0 0
-10.70141 10.647171 3.0982647 26.633789 0 0 0 0
7.9499664 10.670347 3.0745196 5.0470066 0 0 0 0
8.9552994 10.668444 3.1581502 36.293991 0 0 0 0
9.1976271 10.669586 3.1520023 42.702904 0 0 0 0
9.3206921 10.681684 3.1445067 46.69796 0 0 0 0
9.7965364 10.615922 3.1815596 44.06134 0 0 0 0
10.112018 10.726025 3.0826709 52.950668 0 0 0 0
15.290456 10.562477 3.2922292 10 0 0 0 0
15.34755 10.529106 3.1038918 34.018917 0 0 0 0
-14.261431 10.948948 3.2768579 18.371368 0 0 0 0
7.9401731 10.932013 3.0546846 5.1887045 0 0 0 0
8.9754248 10.900845 3.02545 47.042664 0 0 0 0
9.222538 10.88665 3.0211191 43.061985 0 0 0 0
9.3587551 10.909458 3.0227695 45.545815 0 0 0 0
9.7895126 10.846006 3.0629578 43.666306 0 0 0 0
10.088457 10.823341 3.0599802 51.460197 0 0 0 0
-14.262093 11.275526 3.1539788 14.416872 0 0 0 0
7.9474258 11.2962 3.1668367 5.6268902 0 0 0 0
-14.247662 11.603439 3.2192135 16.222616 0 0 0 0
7.9488993 11.545688 3.0912862 5.2925186 0 0 0 0
-14.255103 11.782671 3.1992908 11.952436 0 0 0 0
7.9753637 11.746744 3.1216974 8.3069534 0 0 0 0
-14.284321 12.211187 3.2500291 12.192797 0 0 0 0
7.9958119 12.226564 3.0759339 8.0765066 0 0 0 0
-14.260714 12.490273 3.0559206 18.833839 0 0 0 0
8.019455 12.37639 3.1273079 23.159992 0 0 0 0
-14.259264 12.820015 3.2042446 21.065144 0 0 0 0
8.0004454 12.739662 3.0874391 17.950586 0 0 0 0
8.1058073 12.758391 3.2069597 2 0 0 0 0
15.219179 12.85611 3.273036 13.78125 0 0 0 0
-14.275268 13.104233 3.1040754 26.214384 0 0 0 0
8.0449123 13.01701 3.1737466 10.311001 0 0 0 0
8.1109743 13.017603 3.0968251 2.5 0 0 0 0
15.237126 13.113737 3.2397103 13.336704 0 0 0 0
15.346033 13.027228 3.0992651 35.000801 0 0 0 0
-14.228992 13.319019 3.112927 23.56288 0 0 0 0
-14.047625 13.395361 3.0599799 29.060387 0 0 0 0
7.9944124 13.329109 3.1147285 9.5063286 0 0 0 0
14.995556 13.295612 3.1957173 33.949219 0 0 0 0
15.077641 13.33441 3.079175 35.79129 0 0 0 0
15.346115 13.252884 3.1234879 4.5758057 0 0 0 0
7.1929255 13.645609 3.0874386 36.84993 0 0 0 0
7.2833667 13.694983 3.1109681 37.04583 0 0 0 0
7.6901789 13.604921 3.1527364 29.824747 0 0 0 0
7.8793211 13.592756 3.0324883 11.190693 0 0 0 0
13.362232 13.667815 3.0841699 22.875114 0 0 0 0
13.710058 13.659515 3.1736383 21.548826 0 0 0 0
13.868311 13.636566 3.1065736 4.9200792 0 0 0 0
15.099614 13.757991 3.1049783 23.616747 0 0 0 0
7.1407361 14.083982 3.1446817 21.008093 0 0 0 0
7.2559657 13.808241 3.1553838 34.439598 0 0 0 0
15.118086 13.996824 3.1424131 27.580853 0 0 0 0
7.1379809 14.240572 3.0988584 7.5740528 0 0 0 0
15.102062 14.323179 3.2226782 35.033257 0 0 0 0
15.101367 14.624603 3.2160711 26.104343 0 0 0 0
15.139592 14.762941 3.187458 14.729031 0 0 0 0
15.30912 14.987277 3.14993 9 0 0 0 0
15.294897 16.902225 3.0230455 14.125 0 0 0 0
15.305558 16.884232 3.0168822 11 0 0 0 0
-3.9796317 30.894943 3.2757728 9 0 0 0 0
-4.2495799 30.905041 3.2562943 9 0 0 0 0
-4.1379948 31.006947 3.2298937 8.125 0 0 0 0
-5.1671691 31.416714 3.0592093 8 0 0 0 0
-5.0379 31.392883 3.0938759 8.125 0 0 0 0
-4.7669983 31.577564 3.0095906 10.5 0 0 0 0
-4.3596478 32.078388 3.0496981 13.5 0 0 0 0
-4.5885096 32.214157 3.0862384 15 0 0 0 0
-4.3602247 32.25848 3.0757174 9 0 0 0 0
14.870994 32.256233 3.1635656 12 0 0 0 0
15.032034 32.271229 3.1686761 15 0 0 0 0
15.090279 32.64109 3.1720324 19 0 0 0 0
-6.7193923 32.769119 3.1091776 10.5 0 0 0 0
-5.9331446 32.975933 3.1047292 24.5 0 0 0 0
14.891944 32.877876 3.2334261 16.25 0 0 0 0
-6.1404781 33.076378 3.2189431 18 0 0 0 0
-5.7435017 33.120651 3.192297 12 0 0 0 0
14.843855 33.096878 3.2210698 18.25 0 0 0 0
15.059876 33.170898 3.0966461 9 0 0 0 0
-4.3135643 33.438343 3.1492982 14 0 0 0 0
14.930324 33.507713 3.2327437 17.75 0 0 0 0
14.87425 33.802132 3.0989652 10.5 0 0 0 0
14.857198 33.97979 3.2238245 15.5 0 0 0 0
15.058773 33.962433 3.1047814 9 0 0 0 0
14.954795 34.40905 3.1230838 14 0 0 0 0
14.909697 34.779175 3.2419157 20 0 0 0 0
15.010428 34.527527 3.2834208 13 0 0 0 0
14.892903 34.921745 3.1933458 15 0 0 0 0
14.920069 35.885139 3.2272427 16.5 0 0 0 0
15.017347 35.910252 3.0419021 14 0 0 0 0
14.906718 36.029762 3.1881874 15 0 0 0 0
6.670959 36.613956 3.0142794 8 0 0 0 0
6.5772066 36.952881 3.0871847 5 0 0 0 0
6.7182236 36.950943 3.0223563 8 0 0 0 0
7.9733968 37.137043 3.1909835 9 0 0 0 0
8.2338276 37.171776 3.2075794 12 0 0 0 0
5.5877852 37.334316 3.1491132 10.90625 0 0 0 0
5.8372636 37.332077 3.2670484 12.875 0 0 0 0
7.8757477 37.366615 3.2636056 11.96875 0 0 0 0
8.2555285 37.212635 3.2179692 8 0 0 0 0
7.9440184 37.505966 3.2858801 21 0 0 0 0
-2.7076499 -6.3101087 3.3022642 0 0 0 0 0
-2.284236 -6.3096571 3.4593122 0.25 0 0 0 0
-1.8555956 -6.3394599 3.3034556 0 0 0 0 0
2.5177536 -6.3087559 3.312098 0 0 0 0 0
3.0406232 -6.3138738 3.3080831 0 0 0 0 0
-18.020229 -6.1776657 3.4107461 4.125 0 0 0 0
-17.859898 -6.186512 3.4393249 11.114325 0 0 0 0
-17.582455 -6.1894417 3.4625406 10.619781 0 0 0 0
-17.264326 -6.1803179 3.4253244 12.60112 0 0 0 0
-16.879511 -6.1741257 3.3805554 10.533782 0 0 0 0
-16.736034 -6.1827912 3.4710836 10.280667 0 0 0 0
-16.293072 -6.1824532 3.4199677 11.524537 0 0 0 0
-15.977118 -6.1839647 3.3854213 10.433645 0 0 0 0
-15.858223 -6.208684 3.3882701 6.8937573 0 0 0 0
-13.673717 -6.1258049 3.3228445 4.46875 0 0 0 0
-13.253462 -6.0334754 3.3212786 27.703659 0 0 0 0
-13.007265 -6.0396061 3.3087187 30.52562 0 0 0 0
-12.732458 -6.0181494 3.3058438 27.851654 0 0 0 0
-12.467176 -6.0935273 3.3177462 28.545118 0 0 0 0
-12.166782 -6.0726957 3.3065443 25.731262 0 0 0 0
-11.838354 -6.111701 3.3121953 18.38401 0 0 0 0
-11.500792 -6.0687332 3.3097196 8.3564854 0 0 0 0
-11.316786 -6.0294471 3.3026459 2.1666667 0 0 0 0
-10.904766 -6.0526748 3.3280792 2.3745306 0 0 0 0
-10.728846 -6.0378747 3.3177805 7.625 0 0 0 0
-10.354946 -6.0262918 3.3061161 26.378098 0 0 0 0
-10.028048 -6.0377073 3.310379 32.96875 0 0 0 0
-9.672636 -6.0344677 3.3045278 23.6875 0 0 0 0
-9.4569473 -6.0576134 3.3030009 1.8300781 0 0 0 0
-9.2495708 -6.0086522 3.3066549 1.5 0 0 0 0
-2.7110643 -6.1181583 3.3653941 1.2023252 0 0 0 0
-2.6495285 -6.17241 3.3187232 0.98537278 0 0 0 0
-2.1202488 -6.1664238 3.363131 9.0729017 0 0 0 0
-1.9335408 -6.1820984 3.3259473 9.3895226 0 0 0 0
-1.7779332 -6.0328493 3.3168578 10.916261 0 0 0 0
0.29094291 -6.166153 3.4977849 1 0 0 0 0
0.44438896 -6.0743723 3.3200252 9.1705437 0 0 0 0
0.81866103 -6.0900183 3.3451364 9.9361134 0 0 0 0
0.99513286 -6.1226315 3.5178981 5.0370507 0 0 0 0
1.2826105 -6.1100349 3.336199 12.050619 0 0 0 0
1.7513101 -6.1013136 3.3357029 11.479677 0 0 0 0
1.8727697 -6.1441841 3.3200102 8.3692818 0 0 0 0
2.3013144 -6.1039968 3.3173962 12.888102 0 0 0 0
2.6322834 -6.1909151 3.4768677 2.3368537 0 0 0 0
2.8319373 -6.1306405 3.3451385 10.762608 0 0 0 0
3.1792531 -6.1402483 3.472693 8.315731 0 0 0 0
3.3110464 -6.071804 3.3449779 15.133305 0 0 0 0
3.7164521 -6.0618963 3.3085117 20.002983 0 0 0 0
4.1284642 -6.0429993 3.3048477 21.890625 0 0 0 0
4.2375464 -6.0591993 3.3015869 23 0 0 0 0
5.1829829 -6.0361042 3.3043838 25 0 0 0 0
-13.27302 -5.9755163 3.3072526 20.375 0 0 0 0
-13.08722 -5.9455185 3.3173554 30.172962 0 0 0 0
-12.7094 -5.9126883 3.3274391 27.627184 0 0 0 0
-12.451017 -5.8517241 3.3181651 26.167114 0 0 0 0
-12.150822 -5.8385191 3.3183236 32.298012 0 0 0 0
-11.864282 -5.7884321 3.3236628 33.126656 0 0 0 0
-11.552804 -5.8011866 3.3112359 34.935848 0 0 0 0
-11.334302 -5.8568525 3.3083041 18.233862 0 0 0 0
-10.988262 -5.7870893 3.3055964 13.578468 0 0 0 0
-10.60903 -5.9217119 3.3155699 4.2382479 0 0 0 0
-10.285002 -5.8109965 3.3333483 13.163893 0 0 0 0
-9.994812 -5.9015355 3.3030391 31.374023 0 0 0 0
-9.7867069 -5.8428087 3.317796 29.602535 0 0 0 0
-9.4738865 -5.8180885 3.3036408 21.483036 0 0 0 0
-9.2267151 -5.7619495 3.3042116 22.034592 0 0 0 0
-8.9113884 -5.7305503 3.3016353 5.5 0 0 0 0
-2.7171299 -5.9363155 3.3215053 0.5390625 0 0 0 0
-2.6549582 -5.9740295 3.3218741 0.99612427 0 0 0 0
-2.1413145 -5.9271188 3.31671 3.65625 0 0 0 0
-2.0081179 -5.8948975 3.3379383 8.3289509 0 0 0 0
-1.7537705 -5.897748 3.3043139 8.3003445 0 0 0 0
0.27275646 -5.7261624 3.3023887 6.3333335 0 0 0 0
0.40130085 -5.9006901 3.3918591 12.992681 0 0 0 0
0.82860464 -5.7777395 3.3095877 12.61433 0 0 0 0
0.99703765 -5.9079838 3.327311 16.118652 0 0 0 0
1.3530552 -5.7524724 3.3023024 11.766327 0 0 0 0
1.6864791 -5.8712215 3.3632193 14.228627 0 0 0 0
1.8437035 -5.7528052 3.3076108 10.677732 0 0 0 0
2.2803478 -5.7923517 3.3072472 13.512152 0 0 0 0
2.4862609 -5.8670869 3.3081753 15.721603 0 0 0 0
2.8669767 -5.7862625 3.3054075 16.156807 0 0 0 0
3.1125929 -5.9716916 3.3042035 17.87252 0 0 0 0
3.3188233 -5.8543386 3.3137093 16.901312 0 0 0 0
3.6957269 -5.8401999 3.3070765 18.645834 0 0 0 0
4.1012454 -5.9569254 3.3041196 21.375 0 0 0 0
4.228682 -5.9817047 3.3066139 23.5 0 0 0 0
4.5508571 -5.9403558 3.3044531 26 0 0 0 0
-14.11112 -5.5258336 3.3047578 6 0 0 0 0
-13.890495 -5.4442825 3.3092105 7.928772 0 0 0 0
-13.77049 -5.4435968 3.3038976 5 0 0 0 0
-12.471303 -5.6097522 3.3039248 14 0 0 0 0
-12.04172 -5.5791206 3.3135319 30.396484 0 0 0 0
-11.939425 -5.5805578 3.3124707 30.79632 0 0 0 0
-11.63928 -5.6572247 3.3094728 32.893204 0 0 0 0
-11.225746 -5.6343923 3.3066866 32.077579 0 0 0 0
-10.917426 -5.496788 3.3092704 41.949013 0 0 0 0
-10.591906 -5.6492324 3.3104296 7.6823745 0 0 0 0
-10.417293 -5.6021814 3.3066196 5.8872886 0 0 0 0
-10.114731 -5.6432352 3.3234591 8.7923899 0 0 0 0
-9.7209597 -5.5465889 3.3029323 29.233585 0 0 0 0
-9.5644207 -5.6354842 3.311039 26.621775 0 0 0 0
-9.1884708 -5.6284552 3.3044052 26.593456 0 0 0 0
-8.7765141 -5.5361404 3.309798 9.7879572 0 0 0 0
-8.658844 -5.5568514 3.3059487 1.6911117 0 0 0 0
-1.9832628 -5.5379829 3.313123 1.2962248 0 0 0 0
-1.7077932 -5.6468863 3.3144073 10.701232 0 0 0 0
-1.3759799 -5.4125657 3.3530474 21.48555 0 0 0 0
0.18427064 -5.4968472 3.3155348 2.375 0 0 0 0
0.38571766 -5.525363 3.3014936 5.7317829 0 0 0 0
0.80457908 -5.6125798 3.3056309 8.3319712 0 0 0 0
1.0780716 -5.4968987 3.3104291 5.9774303 0 0 0 0
1.2912002 -5.6573086 3.3059843 10.224752 0 0 0 0
1.7572564 -5.6104689 3.3042133 12.960274 0 0 0 0
1.8480803 -5.5617342 3.3071816 10.423409 0 0 0 0
2.2786193 -5.5744152 3.3081579 9.2655125 0 0 0 0
2.6019449 -5.5042305 3.323462 6.890625 0 0 0 0
2.823663 -5.5499897 3.3245134 5.9311209 0 0 0 0
3.2535863 -5.6550827 3.3117342 12.279451 0 0 0 0
3.3656452 -5.6558065 3.304774 17.520832 0 0 0 0
3.6884592 -5.4959335 3.3047335 23.5 0 0 0 0
-13.878279 -5.200942 3.316555 23.555693 0 0 0 0
-13.680494 -5.2510843 3.3114438 28.957388 0 0 0 0
-13.360154 -5.1876364 3.3046012 24.946548 0 0 0 0
-12.96408 -5.2215643 3.3027334 2.3964844 0 0 0 0
-12.821459 -5.1673841 3.3116014 3.7307549 0 0 0 0
-12.541735 -5.1059523 3.3019562 3 0 0 0 0
-12.026929 -5.2430449 3.3175397 1.5 0 0 0 0
-11.878038 -5.3247452 3.3087058 7.2432194 0 0 0 0
-11.499353 -5.2176409 3.3170748 19.546104 0 0 0 0
-11.320345 -5.289814 3.3038495 33.9939 0 0 0 0
-10.902186 -5.2607746 3.3030891 34.867432 0 0 0 0
-10.687298 -5.2232981 3.302537 31.835268 0 0 0 0
-10.327124 -5.1383286 3.3284349 9.7849007 0 0 0 0
-10.182234 -5.1616273 3.315834 12.951557 0 0 0 0
-9.7266178 -5.3587666 3.3284838 13.455767 0 0 0 0
-9.499465 -5.2339869 3.3370605 4.4942389 0 0 0 0
-9.178278 -5.2525234 3.319623 13.105989 0 0 0 0
-8.7183704 -5.258234 3.3053205 15.153798 0 0 0 0
-8.5643177 -5.2019005 3.3188095 7.8491116 0 0 0 0
-8.3898544 -5.2034893 3.336431 1.0058594 0 0 0 0
-1.9520822 -5.3530993 3.3278461 0.62792969 0 0 0 0
-1.6202471 -5.210865 3.3204975 17.93187 0 0 0 0
-1.3574964 -5.1651001 3.3266516 11.383598 0 0 0 0
0.94825917 -5.1674027 3.34074 0 0 0 0 0
1.3674871 -5.3206339 3.3204532 10.138889 0 0 0 0
1.7451563 -5.1743402 3.3062568 9.2059984 0 0 0 0
1.8884705 -5.2521791 3.3045268 5.1631212 0 0 0 0
2.301774 -5.1556482 3.3023028 15.992653 0 0 0 0
2.8335042 -5.1863985 3.3019116 13.654436 0 0 0 0
3.2228472 -5.3307381 3.3072262 6.34375 0 0 0 0
3.3212681 -5.2456155 3.312094 11.267448 0 0 0 0
-13.937463 -4.9241295 3.3167901 22.372391 0 0 0 0
-13.615126 -4.8500161 3.3111639 34.575256 0 0 0 0
-13.443636 -4.8987713 3.30653 35.328659 0 0 0 0
-12.923176 -5.0952616 3.3299124 1 0 0 0 0
-12.766035 -4.9667158 3.3062339 27.266666 0 0 0 0
-12.494734 -5.0042887 3.3330956 4.789125 0 0 0 0
-12.246019 -4.85742 3.3185995 4.9375 0 0 0 0
-11.707003 -4.9461403 3.3500657 1 0 0 0 0
-11.608309 -5.0024443 3.3625197 1.875 0 0 0 0
-11.149578 -5.0535088 3.3247118 15.75 0 0 0 0
-10.948309 -4.9470973 3.3146298 19.95303 0 0 0 0
-10.589579 -4.8552885 3.3057175 29.233965 0 0 0 0
-10.414095 -4.9008732 3.3085103 26.281092 0 0 0 0
-10.156655 -5.0664196 3.3233643 10.482503 0 0 0 0
-9.7584114 -4.9436665 3.317179 22.854004 0 0 0 0
-9.4867153 -4.8454037 3.3261404 3.3809357 0 0 0 0
-9.0964127 -4.9652085 3.3322632 4.0989261 0 0 0 0
-8.8579416 -4.8738899 3.328423 6.7291903 0 0 0 0
-8.4811382 -4.950491 3.3292999 3.3804095 0 0 0 0
-8.3773746 -4.9850054 3.3195884 1.5520796 0 0 0 0
-1.5828323 -5.0593638 3.3060408 22.14217 0 0 0 0
-1.3619416 -5.0129528 3.3077388 22.023277 0 0 0 0
0.21811932 -4.9970598 3.3234842 14.291666 0 0 0 0
0.36533815 -4.9828467 3.3013046 9.0590029 0 0 0 0
0.73881245 -4.9219522 3.3095782 1.6979167 0 0 0 0
1.1116179 -4.9589062 3.3298001 1.8333333 0 0 0 0
1.2874211 -5.0118532 3.3534393 3.7387624 0 0 0 0
1.6607577 -4.9989519 3.3167124 4.5578566 0 0 0 0
1.9644355 -4.9234896 3.3186164 7.9379802 0 0 0 0
2.1952996 -4.9998908 3.3670216 3.931531 0 0 0 0
2.5965471 -4.9884467 3.3347049 2.1518555 0 0 0 0
2.8825121 -4.8672695 3.3069186 7.7657552 0 0 0 0
3.1161079 -4.967762 3.308301 9.3138123 0 0 0 0
3.4853768 -4.9509435 3.3018651 15.5 0 0 0 0
-13.679848 -4.7787075 3.3135252 30.5 0 0 0 0
-13.400082 -4.7272239 3.3067248 29.5 0 0 0 0
-12.912811 -4.7566786 3.3018615 43.5 0 0 0 0
-12.71594 -4.6590204 3.308639 35.105469 0 0 0 0
-12.405102 -4.6688137 3.3055468 28.96875 0 0 0 0
-12.028975 -4.6638746 3.3073261 21.869629 0 0 0 0
-11.886147 -4.6399798 3.3027158 11.1875 0 0 0 0
-11.419355 -4.6965418 3.3099949 1 0 0 0 0
-11.179596 -4.7266827 3.3178146 1.6605272 0 0 0 0
-11.02265 -4.5906186 3.3332646 1.3315176 0 0 0 0
-10.539782 -4.7800617 3.3091338 26.59375 0 0 0 0
-10.257118 -4.7680016 3.3060081 19.007713 0 0 0 0
-10.162423 -4.6458282 3.3064361 24.619793 0 0 0 0
-9.7331696 -4.7362986 3.3100216 5.7278643 0 0 0 0
-9.4144096 -4.7212887 3.313935 6.6992188 0 0 0 0
-9.1015377 -4.6847758 3.3391533 1.2727706 0 0 0 0
-8.7504749 -4.7266455 3.3240905 4.5166159 0 0 0 0
-8.5114927 -4.7518158 3.31178 14.954163 0 0 0 0
-8.391037 -4.6549582 3.323895 4.3058825 0 0 0 0
-7.5272465 -4.5466824 3.3075154 0.9375 0 0 0 0
-7.4242759 -4.6123662 3.3063993 1.5720487 0 0 0 0
-1.5556439 -4.7244101 3.306093 9.3173561 0 0 0 0
-1.3097663 -4.634799 3.3046005 10.905645 0 0 0 0
0.25767681 -4.5205526 3.3017929 6.0621786 0 0 0 0
0.31742114 -4.562151 3.3027954 5.9154902 0 0 0 0
1.0171117 -4.6090927 3.3038726 0.5 0 0 0 0
1.4108166 -4.5688515 3.3073907 1.125 0 0 0 0
1.6926816 -4.6248021 3.3169594 2.1125 0 0 0 0
1.9945712 -4.650651 3.306463 6.9210835 0 0 0 0
2.2535734 -4.5274076 3.3212333 2.7721353 0 0 0 0
2.6555314 -4.5389748 3.3073545 7.666667 0 0 0 0
2.801965 -4.6900654 3.3013344 10.020582 0 0 0 0
-12.744369 -4.4493141 3.30232 41 0 0 0 0
-12.431072 -4.4006367 3.3075924 27.03125 0 0 0 0
-12.066713 -4.3766994 3.3072152 33.375 0 0 0 0
-11.818737 -4.3128347 3.3013344 31 0 0 0 0
-11.585021 -4.3170166 3.303077 27.75 0 0 0 0
-11.121225 -4.4795084 3.3293967 1.5 0 0 0 0
-11.022696 -4.3992968 3.3229761 8 0 0 0 0
-9.6783981 -4.4193316 3.3070669 29.555664 0 0 0 0
-9.4471264 -4.4188862 3.3223491 7.0842896 0 0 0 0
-9.2451029 -4.272944 3.3059931 13.625 0 0 0 0
-8.5551395 -4.4136209 3.3234982 1.140625 0 0 0 0
-7.5590973 -4.3988762 3.31583 0.98377705 0 0 0 0
-7.3473988 -4.382884 3.3091545 4.8964458 0 0 0 0
-7.0295348 -4.3374333 3.3163433 8.8753309 0 0 0 0
-6.7402163 -4.2366772 3.3063598 6.5555663 0 0 0 0
-6.5211611 -4.2246499 3.3048282 4 0 0 0 0
-1.5256808 -4.3634491 3.3210616 4.1610055 0 0 0 0
-1.4682469 -4.3939409 3.3097863 3.7008312 0 0 0 0
-1.1601909 -4.4814739 3.3006899 1 0 0 0 0
0.25465998 -4.4870505 3.3032434 9 0 0 0 0
1.7634438 -4.2632365 3.3091238 6 0 0 0 0
1.8681362 -4.4260197 3.3202994 1.4375 0 0 0 0
2.2314348 -4.4763055 3.3099194 6.3000002 0 0 0 0
2.6403604 -4.4660525 3.3229942 1.5 0 0 0 0
2.7974088 -4.2148032 3.3001378 9 0 0 0 0
-11.470684 -3.9689736 3.3064494 31 0 0 0 0
-11.100245 -4.105299 3.3098681 36 0 0 0 0
-10.558739 -4.1092062 3.3014746 8.25 0 0 0 0
-10.220943 -4.0006714 3.3007174 4 0 0 0 0
-10.03281 -3.9364262 3.3051443 2.125 0 0 0 0
-9.738842 -3.9245181 3.3212039 3.90625 0 0 0 0
-9.3428574 -4.1405764 3.3128581 10.125 0 0 0 0
-9.1725492 -4.0396724 3.3117073 11.435843 0 0 0 0
-8.743412 -3.9324646 3.3062539 9.3710642 0 0 0 0
-8.6014404 -3.9258609 3.3082767 7.1393189 0 0 0 0
-8.314661 -3.9092481 3.3120039 1 0 0 0 0
-7.6310601 -4.1635833 3.3326139 0.98521042 0 0 0 0
-7.493114 -4.1625481 3.3246529 1 0 0 0 0
-6.6857948 -4.1254997 3.31392 14.595815 0 0 0 0
-6.4525437 -4.0738139 3.3162601 6.4304199 0 0 0 0
-6.1697073 -3.9181437 3.307291 2.546875 0 0 0 0
-1.2972782 -4.1629767 3.3083072 6.2378783 0 0 0 0
-1.0726769 -4.0540466 3.3160357 2.3359141 0 0 0 0
0.18516839 -4.022315 3.322207 9.2511387 0 0 0 0
0.45976195 -4.0179491 3.3099418 4.1294641 0 0 0 0
0.80639601 -4.087502 3.3052063 3.5156248 0 0 0 0
1.0505469 -4.0260148 3.3233099 1.8828125 0 0 0 0
1.242643 -4.061553 3.3116069 3.3866699 0 0 0 0
1.744766 -4.0867357 3.3046863 5.4876652 0 0 0 0
1.8239199 -4.0486422 3.3023353 6.9499998 0 0 0 0
2.1591644 -4.1016569 3.5277128 0.31287706 0 0 0 0
2.5755584 -3.9688387 3.3088369 0.96484375 0 0 0 0
2.755209 -4.1820202 3.3033078 7.5654764 0 0 0 0
-9.6543198 -3.87852 3.3143408 5.0605469 0 0 0 0
-9.5875196 -3.720253 3.3036535 17 0 0 0 0
-9.1182957 -3.8369346 3.3318491 1.0625 0 0 0 0
-8.7397652 -3.8690963 3.3206673 2.8017883 0 0 0 0
-8.4347172 -3.8149371 3.3234038 1.8428031 0 0 0 0
-8.3427324 -3.7980213 3.3150625 1.3753949 0 0 0 0
-7.9572525 -3.6329181 3.3082139 0.421875 0 0 0 0
-6.0416842 -3.8284168 3.3159118 1.7543161 0 0 0 0
-5.9527988 -3.8249397 3.3223433 0.56713867 0 0 0 0
-9.8174915 -3.4194314 3.3021114 31 0 0 0 0
-9.5265398 -3.5886412 3.3010533 32.5 0 0 0 0
-8.8752632 -3.5746725 3.3230584 1.125 0 0 0 0
-7.8485699 -3.5236814 3.3130918 1.0039062 0 0 0 0
-7.7085094 -3.4597483 3.307282 3.4242415 0 0 0 0
-7.2085528 -3.3109355 3.3301036 1 0 0 0 0
-7.0329332 -3.3537488 3.3125255 13 0 0 0 0
-6.075139 -3.3592739 3.3075314 1.6191406 0 0 0 0
-5.9586716 -3.4509695 3.3115983 5.4444189 0 0 0 0
-0.91818494 -3.5029354 3.3122344 0 0 0 0 0
2.1667819 -3.5670426 3.3024409 4 0 0 0 0
-8.5302296 -3.1350729 3.3116317 2.125 0 0 0 0
-7.3504062 -3.1223998 3.3052444 9.125 0 0 0 0
-6.9735126 -3.2645841 3.3065391 11.445312 0 0 0 0
-6.3786211 -3.0322604 3.3067169 8 0 0 0 0
-6.1063709 -3.2489836 3.3196735 1.7438965 0 0 0 0
-5.7786651 -3.159112 3.3047616 12.378439 0 0 0 0
-5.6195517 -3.0390587 3.3046691 12.365885 0 0 0 0
-5.1981812 -3.0858679 3.3086133 5.0695381 0 0 0 0
-4.9148388 -3.1760659 3.3074281 0.29032153 0 0 0 0
-4.755444 -3.0443172 3.3058753 0.18212122 0 0 0 0
-1.0231475 -3.2293129 3.3035393 11.312946 0 0 0 0
1.1758544 -3.1679969 3.4979825 0 0 0 0 0
2.2177782 -3.11338 3.4621916 0.03125 0 0 0 0
3.1432674 -3.062933 3.3530064 27.144344 0 0 0 0
-8.5026665 -2.9064186 3.3211455 0 0 0 0 0
-6.7496037 -2.7092834 3.3080523 2 0 0 0 0
-5.7258277 -2.7687514 3.3082228 3.25 0 0 0 0
-5.5281754 -2.9080491 3.3094606 3.0555115 0 0 0 0
-5.2474422 -2.9250281 3.3026917 13 0 0 0 0
-5.0806446 -2.8179381 3.3004527 14 0 0 0 0
-4.7136636 -2.9849796 3.3187032 0.37695312 0 0 0 0
-4.3827229 -2.7528489 3.3004696 3 0 0 0 0
3.1157699 -2.8447289 3.434916 47.601887 0 0 0 0
-6.1912498 -2.6715393 3.3021348 2 0 0 0 0
-5.7018366 -2.634666 3.3010292 2 0 0 0 0
-4.6816931 -2.5432692 3.3094077 0.75 0 0 0 0
-4.394311 -2.6148825 3.3038883 5.5833335 0 0 0 0
-3.9890654 -2.4898403 3.3003597 8.5 0 0 0 0
-3.7833056 -2.489665 3.3022757 3.5 0 0 0 0
3.0988169 -2.6235321 3.4343586 9 0 0 0 0
-8.7516346 -2.1228149 3.3113031 1 0 0 0 0
-5.645329 -2.1075385 3.3002601 5 0 0 0 0
-4.5127296 -2.3157749 3.301796 0.5 0 0 0 0
-4.2799063 -2.3519211 3.3059018 2.3984375 0 0 0 0
-4.1855488 -2.3385184 3.3152325 0 0 0 0 0
2.0490761 -2.1799932 3.5450628 20.75 0 0 0 0
2.2297206 -2.3251381 3.4881978 0 0 0 0 0
2.6808248 -2.1761956 3.591064 24 0 0 0 0
18.25635 -2.2376223 3.589855 3 0 0 0 0
18.47126 -2.230907 3.5317428 2.875 0 0 0 0
18.791193 -2.2441638 3.5605712 3.875 0 0 0 0
18.965609 -2.221355 3.5672672 4 0 0 0 0
-8.7997265 -1.9172004 3.3057935 1 0 0 0 0
-5.422132 -1.9564691 3.3118761 11 0 0 0 0
-5.3509736 -1.9638081 3.3075199 7.5 0 0 0 0
-4.2524767 -1.9586561 3.3035855 6.5 0 0 0 0
-3.5258424 -1.8390323 3.3177557 0 0 0 0 0
-3.8749137 -1.5552136 3.3031957 0 0 0 0 0
17.279659 -1.6361949 3.3812189 3.573319 0 0 0 0
-3.9223709 -0.38710529 3.3059385 0 0 0 0 0
-3.7068546 -0.39671516 3.3030655 0.5 0 0 0 0
-17.437284 0.92007267 3.3287475 111 0 0 0 0
-16.385269 0.94691032 3.487082 3 0 0 0 0
-9.6151609 0.98616779 3.300061 1 0 0 0 0
-9.5948086 1.0157412 3.3155367 1 0 0 0 0
-17.452391 1.4284452 3.5914955 5 0 0 0 0
-17.388374 1.255249 3.4411688 69.583328 0 0 0 0
-16.632172 1.4974692 3.4523785 3 0 0 0 0
-9.7385807 1.3680596 3.3107982 1 0 0 0 0
-17.419666 1.7564662 3.3973742 83.052078 0 0 0 0
-16.402826 1.6527478 3.4726717 5 0 0 0 0
-16.011835 1.6537237 3.4454527 4 0 0 0 0
-15.841681 1.6773953 3.3960676 3 0 0 0 0
-9.8119183 1.6937418 3.3039355 1 0 0 0 0
-17.459904 1.9398427 3.4682696 41.25 0 0 0 0
-17.388464 1.8635483 3.4728618 37.75 0 0 0 0
-16.6698 1.9603012 3.4292104 2.75 0 0 0 0
-16.48044 2.029984 3.5080385 3 0 0 0 0
-16.073103 1.9056382 3.4222579 2.125 0 0 0 0
-15.896729 2.0523825 3.4366789 4 0 0 0 0
-9.9342775 2.0825202 3.3003016 1 0 0 0 0
-17.416677 2.2948964 3.410706 61.163086 0 0 0 0
-17.3382 2.3160279 3.4126735 61.25 0 0 0 0
-16.645863 2.3263457 3.4099998 2.9375 0 0 0 0
-16.351511 2.2843227 3.4105132 2.875 0 0 0 0
-16.04026 2.2508669 3.412189 2.625 0 0 0 0
-15.80107 2.1921849 3.4059267 3 0 0 0 0
-9.9715528 2.2383296 3.30762 1 0 0 0 0
-8.2812366 2.3444729 3.3099723 0.375 0 0 0 0
2.2031491 2.3517876 3.4514177 0 0 0 0 0
-17.436541 2.5247498 3.3592436 83.90625 0 0 0 0
-16.908525 2.6804018 3.4798126 3.625 0 0 0 0
-16.610012 2.5658588 3.4352438 4.1119385 0 0 0 0
-16.291935 2.5193727 3.401855 3.140625 0 0 0 0
-16.084209 2.504972 3.4392614 2.7693844 0 0 0 0
-15.771557 2.5665135 3.4162734 2.5095978 0 0 0 0
-10.064717 2.5952868 3.3004022 1 0 0 0 0
-8.2727938 2.508693 3.3049335 0.75 0 0 0 0
-5.7519069 2.4769995 3.3000669 0 0 0 0 0
-5.6675863 2.5838728 3.3005955 0 0 0 0 0
-17.431686 2.8234918 3.3609304 96.178452 0 0 0 0
-17.30188 2.9669266 3.4668155 58.382832 0 0 0 0
-16.836487 2.9461956 3.4363706 3.3051515 0 0 0 0
-16.611309 2.9261212 3.4454923 3.1212368 0 0 0 0
-16.315483 2.9650383 3.4591208 3.6230452 0 0 0 0
-15.985398 2.936172 3.4181542 2.3870723 0 0 0 0
-15.708872 2.8112435 3.4023843 2.1087348 0 0 0 0
-8.2576542 2.711302 3.3067305 0 0 0 0 0
-17.437569 3.1369886 3.3806882 81.177002 0 0 0 0
-17.346607 3.2068329 3.4247696 53.204575 0 0 0 0
-16.848541 3.2792826 3.4789782 4.2556152 0 0 0 0
-16.582619 3.1804397 3.416024 3.953233 0 0 0 0
-16.411482 3.2084298 3.436851 3.3807609 0 0 0 0
-16.060194 3.2416975 3.4125614 2.7898407 0 0 0 0
-15.810432 3.1579819 3.4269819 2.9088745 0 0 0 0
-15.519613 3.1380842 3.3789394 1 0 0 0 0
-0.9599334 3.2646637 3.4111946 2.375 0 0 0 0
0.21396731 3.234689 3.4526348 0 0 0 0 0
1.2405045 3.2299578 3.4460268 0.001953125 0 0 0 0
2.0883029 3.1517968 3.4617305 0.6015625 0 0 0 0
2.1358571 3.2264242 3.5424881 4.5731611 0 0 0 0
-17.439392 3.3574655 3.3632693 92.333176 0 0 0 0
-17.31102 3.37974 3.4040999 55.799881 0 0 0 0
-16.892567 3.4083076 3.4552999 3.6325035 0 0 0 0
-16.586891 3.3425744 3.4185073 4.2167525 0 0 0 0
-16.321671 3.3697734 3.4446449 3.6706731 0 0 0 0
-16.038757 3.3216407 3.4312916 3.3075929 0 0 0 0
-15.754297 3.3561254 3.394825 2.2397208 0 0 0 0
-0.95646107 3.3005433 3.4511154 0 0 0 0 0
-17.435516 3.78619 3.4004111 84.934326 0 0 0 0
-17.317879 3.7576485 3.4000649 49.283913 0 0 0 0
-16.832142 3.8436203 3.4592493 4.9388595 0 0 0 0
-16.649714 3.832438 3.4442651 4.7913513 0 0 0 0
-16.284824 3.8268654 3.4662619 4.5319242 0 0 0 0
-16.118011 3.7342288 3.4494629 4.3768196 0 0 0 0
-15.831165 3.7939429 3.4129105 3.4284225 0 0 0 0
-15.592638 3.6832573 3.4052463 2 0 0 0 0
0.20637715 3.8825321 3.5150154 0.28963646 0 0 0 0
1.1664989 3.8194523 3.4642138 1 0 0 0 0
2.1709058 3.8888283 3.4191697 1 0 0 0 0
-17.454325 3.970829 3.3688788 94.714737 0 0 0 0
-17.289351 3.9561908 3.4672339 17.022858 0 0 0 0
-16.962265 4.1192474 3.4257245 3.9855461 0 0 0 0
-16.565731 4.1381121 3.4143658 3.1073432 0 0 0 0
-16.416716 4.1499548 3.4271171 4.0294471 0 0 0 0
-15.985723 4.0686412 3.4507413 5.1415443 0 0 0 0
-15.852467 4.0854039 3.4304409 3.9063108 0 0 0 0
0.19292119 3.9461861 3.5217755 1.8775024 0 0 0 0
1.1972073 3.9323678 3.572433 1 0 0 0 0
1.2128644 3.9527891 3.5535436 0.74804688 0 0 0 0
2.1955934 3.9348185 3.4554675 0.6875 0 0 0 0
-17.482199 4.4099321 3.3371177 45.801861 0 0 0 0
-17.233461 4.2774792 3.4278688 14.027369 0 0 0 0
-16.960293 4.3528376 3.4377608 6.2517786 0 0 0 0
-16.683929 4.395081 3.4322748 5.4394007 0 0 0 0
-16.296963 4.3423553 3.4274144 5.712534 0 0 0 0
-16.071308 4.3600044 3.4426346 5.7188611 0 0 0 0
-15.840847 4.2809067 3.4170532 5.388855 0 0 0 0
-17.485426 4.6153488 3.342989 50.439659 0 0 0 0
-17.230747 4.6362143 3.466578 6.5728626 0 0 0 0
-16.887329 4.6831379 3.4207222 6.3016233 0 0 0 0
-16.638018 4.7075896 3.4353201 4.8127975 0 0 0 0
-16.32037 4.692112 3.4321206 6.4565158 0 0 0 0
-16.123936 4.689497 3.4142141 5.2947636 0 0 0 0
-15.874561 4.7310896 3.4286885 6.7508545 0 0 0 0
0.068514705 4.6076336 3.3116934 13.40625 0 0 0 0
1.117991 4.7589183 3.419642 0.13020849 0 0 0 0
2.1919403 4.7418795 3.4429612 0 0 0 0 0
-17.478123 4.8610559 3.3480663 46.548103 0 0 0 0
-17.336218 4.8363981 3.4663038 9.3988304 0 0 0 0
-16.883076 4.9761176 3.4087915 6.7364383 0 0 0 0
-16.642578 4.9303617 3.4233036 7.4759531 0 0 0 0
-16.394875 4.8601007 3.438201 7.8160086 0 0 0 0
-16.004276 4.9507527 3.4317651 6.7020435 0 0 0 0
-15.873934 4.8601866 3.4066398 6.6083984 0 0 0 0
0.007049656 5.0869317 3.3880746 32 0 0 0 0
1.1196098 4.8220224 3.4049351 0 0 0 0 0
-17.480911 5.1745844 3.3252285 46.728859 0 0 0 0
-17.309198 5.2275667 3.3856494 14.456667 0 0 0 0
-16.970287 5.2019825 3.3614602 12.640256 0 0 0 0
-16.66573 5.2319069 3.3432107 17.860556 0 0 0 0
-16.439159 5.2223186 3.3871827 12.122866 0 0 0 0
-16.051235 5.2110858 3.3565383 20.651907 0 0 0 0
-15.774754 5.256218 3.3516858 23.992634 0 0 0 0
-15.578292 5.2716885 3.3426347 18.879517 0 0 0 0
-15.273983 5.2675486 3.3127961 25 0 0 0 0
-0.60455596 5.2866564 3.3136814 23.125 0 0 0 0
-0.53888595 5.3476267 3.4497542 26.815264 0 0 0 0
-0.22307339 5.3398685 3.4925871 33.347427 0 0 0 0
0.071396045 5.3331566 3.4407542 35.785156 0 0 0 0
-0.76450157 5.5981922 3.5232546 22 0 0 0 0
-0.54157794 5.4174213 3.5135584 28.351789 0 0 0 0
-0.19172165 5.4224219 3.499773 33.490883 0 0 0 0
0.080513261 5.53303 3.3959091 42.715176 0 0 0 0
0.15702617 5.718317 3.5933537 40.541664 0 0 0 0
2.1251783 6.4602985 3.5068536 0 0 0 0 0
-15.921948 6.8820691 3.3967474 2 0 0 0 0
-16.10091 6.945786 3.3475997 1.5 0 0 0 0
-15.984253 8.2698231 3.4139614 1.5625 0 0 0 0
-15.894843 8.2643414 3.4433663 2 0 0 0 0
-2.8488188 8.3699322 3.5235839 1.4960938 0 0 0 0
-2.4832578 8.3352699 3.4343941 4.2421875 0 0 0 0
-2.3435235 8.3142738 3.3758192 4.625 0 0 0 0
0.79317945 8.2447462 3.3209577 6 0 0 0 0
0.90038729 8.2565308 3.3205507 4 0 0 0 0
1.2754753 8.2796993 3.3350561 3 0 0 0 0
1.9729816 8.3767166 3.406503 1.75 0 0 0 0
2.1987195 8.3712397 3.4918299 10.03125 0 0 0 0
2.5517516 8.3752403 3.3539219 2.75 0 0 0 0
2.8327537 8.3711948 3.4421754 6.0765777 0 0 0 0
3.132323 8.3567104 3.4037204 2.0372639 0 0 0 0
3.3634005 8.371932 3.4423811 2.25 0 0 0 0
-15.929508 8.4906225 3.3923714 2.25 0 0 0 0
-15.891795 8.458703 3.3729184 2 0 0 0 0
-2.9211593 8.4065781 3.5073094 0.625 0 0 0 0
-2.2628682 8.4092236 3.5529447 1 0 0 0 0
2.0752244 8.4188347 3.4388969 1.625 0 0 0 0
2.2590122 8.4349136 3.5213482 1 0 0 0 0
2.4478128 8.4255581 3.568707 1.75 0 0 0 0
2.9035449 8.4319954 3.5240421 1.1103516 0 0 0 0
3.233717 8.4264364 3.5307446 1.2528152 0 0 0 0
3.3789501 8.4268866 3.5265336 1.2050781 0 0 0 0
3.6109931 8.4092503 3.4059031 3 0 0 0 0
-11.123892 8.9263973 3.3151975 2.9265747 0 0 0 0
-11.030886 8.9466743 3.3361716 13.516768 0 0 0 0
-8.9475784 8.9765177 3.3431063 5 0 0 0 0
-10.837621 9.1158085 3.3350606 41.093124 0 0 0 0
-9.0515852 9.0239477 3.3505211 1 0 0 0 0
-8.9470749 9.0013161 3.3100059 2 0 0 0 0
7.9574714 9.2788782 3.3346734 5.3394341 0 0 0 0
8.2280693 9.1694927 3.3076522 2.3494937 0 0 0 0
10.142593 9.2793331 3.3160515 47.96875 0 0 0 0
10.300015 9.2983656 3.3188744 26 0 0 0 0
-10.840934 9.4021931 3.4224219 49.567085 0 0 0 0
7.9745975 9.3732262 3.3709798 4.0449286 0 0 0 0
10.164663 9.4507046 3.328568 50.223492 0 0 0 0
10.214287 9.3355389 3.3102937 34.092957 0 0 0 0
15.159468 9.5048313 3.3356066 8.03125 0 0 0 0
15.346356 9.4796562 3.3166337 11.780518 0 0 0 0
-10.82262 9.7902794 3.5002968 55.701679 0 0 0 0
-10.762921 9.7409801 3.4264677 47.75005 0 0 0 0
-10.271301 9.7880402 3.5330474 42.396202 0 0 0 0
-10.056682 9.7814617 3.5566354 47.643921 0 0 0 0
-9.7807693 9.7466431 3.5655565 37.669937 0 0 0 0
7.9715328 9.8268471 3.4761052 4.9642434 0 0 0 0
8.9673843 9.8845177 3.5720801 38.695801 0 0 0 0
9.0485249 9.8804293 3.546133 42.272804 0 0 0 0
9.362031 9.8896418 3.5459433 43.609375 0 0 0 0
9.6795807 9.8773336 3.5690401 39.640625 0 0 0 0
10.149169 9.8497944 3.3597803 49.352333 0 0 0 0
15.187975 9.8370361 3.3618362 21.685772 0 0 0 0
15.351641 9.6754704 3.3175957 9.5153809 0 0 0 0
-10.848803 9.9395695 3.358891 52.388821 0 0 0 0
-10.670542 10.072927 3.3390737 48.801979 0 0 0 0
-10.267467 9.9886494 3.4400806 49.57618 0 0 0 0
-10.069514 9.9593534 3.4492188 44.970535 0 0 0 0
-9.8878174 9.9130821 3.4900768 21.8125 0 0 0 0
7.9629588 9.9571638 3.4193604 4.4580603 0 0 0 0
8.9513321 10.010645 3.4908113 42.450527 0 0 0 0
9.1089725 9.9838543 3.5001779 44.364162 0 0 0 0
9.3923349 10.017056 3.4967418 44.409096 0 0 0 0
9.7934656 10.047897 3.4658113 49.056683 0 0 0 0
10.125506 10.101889 3.3949673 51.251934 0 0 0 0
15.163477 9.9901323 3.4214997 37.522594 0 0 0 0
15.352093 10.003328 3.3217824 5.21875 0 0 0 0
-10.8271 10.23152 3.3160419 51.90625 0 0 0 0
-10.645391 10.250238 3.3069019 50.090538 0 0 0 0
-10.308472 10.233849 3.3197281 28.617168 0 0 0 0
7.9544511 10.326941 3.472784 5.8840981 0 0 0 0
8.9764919 10.256085 3.3715506 45.944191 0 0 0 0
9.2065086 10.250671 3.3669004 45.763107 0 0 0 0
9.3418331 10.329805 3.3318963 46.090157 0 0 0 0
9.8071823 10.309166 3.3354206 46.777622 0 0 0 0
10.081501 10.250141 3.3481193 51.112194 0 0 0 0
15.181568 10.293072 3.3570495 36.829529 0 0 0 0
15.350158 10.420661 3.3186898 10.265625 0 0 0 0
-14.226336 10.780864 3.4772291 13 0 0 0 0
7.9631519 10.688866 3.4924488 8.6996746 0 0 0 0
-14.254414 10.987133 3.349617 14.156446 0 0 0 0
7.9795723 10.966468 3.4708309 20.305021 0 0 0 0
-14.251011 11.302863 3.4954624 21.850044 0 0 0 0
7.9879146 11.205104 3.4679685 20.745644 0 0 0 0
-14.250097 11.488585 3.3725085 13.810993 0 0 0 0
8.0024633 11.546968 3.4130309 22.066929 0 0 0 0
-14.242771 11.814411 3.4343555 7.2572098 0 0 0 0
8.0177679 11.819962 3.4810216 22.78031 0 0 0 0
8.1064262 11.800461 3.4363256 2 0 0 0 0
-14.26244 12.145948 3.4581134 18.259304 0 0 0 0
8.0246773 12.167634 3.4538498 11.071058 0 0 0 0
8.1212549 12.14592 3.5074787 2 0 0 0 0
-14.266931 12.43445 3.5296006 20.10445 0 0 0 0
8.0370159 12.450796 3.486629 9.9659729 0 0 0 0
-14.25684 12.707335 3.4791446 25.723707 0 0 0 0
8.0119743 12.789169 3.4172783 9.8404551 0 0 0 0
15.076969 12.76673 3.5156217 31.362572 0 0 0 0
-14.264254 13.030725 3.3707242 16.645294 0 0 0 0
7.986311 12.996571 3.3442774 16.412622 0 0 0 0
14.992744 13.159925 3.4299083 20.5 0 0 0 0
15.066591 13.002077 3.5732617 53.739445 0 0 0 0
-14.274897 13.2472 3.3071775 19.75 0 0 0 0
14.992923 13.256636 3.3582942 28.917969 0 0 0 0
15.172314 13.268793 3.4365754 33.67012 0 0 0 0
7.1763592 13.698799 3.4471235 31.493971 0 0 0 0
7.280097 13.649822 3.5333476 36.727634 0 0 0 0
7.7169623 13.610944 3.4391925 33.903595 0 0 0 0
7.8759608 13.617821 3.4846134 6.5648704 0 0 0 0
13.679813 13.657532 3.3249874 29.958097 0 0 0 0
13.836904 13.654779 3.4616199 9.074337 0 0 0 0
15.093026 13.747002 3.4400725 51.081348 0 0 0 0
7.1691051 14.046154 3.4664173 25.36735 0 0 0 0
7.2573943 13.816825 3.3949103 37.575874 0 0 0 0
13.998252 13.809186 3.5983119 18 0 0 0 0
14.309826 13.958252 3.5469098 8.8581152 0 0 0 0
14.479303 14.014629 3.5534105 6.5763216 0 0 0 0
15.081169 13.92798 3.4708424 49.003269 0 0 0 0
7.1481423 14.187108 3.5132976 10.706762 0 0 0 0
14.395562 14.102579 3.5542271 4 0 0 0 0
14.55948 14.120344 3.5324726 3 0 0 0 0
14.826452 14.193126 3.5911679 27 0 0 0 0
15.098326 14.261679 3.3700428 53.623184 0 0 0 0
15.072959 14.457333 3.5028515 66.539902 0 0 0 0
15.092793 14.735396 3.400948 41.455444 0 0 0 0
-4.5808043 30.459755 3.3925161 12.25 0 0 0 0
-4.2926011 30.435207 3.4923258 14 0 0 0 0
-4.2823906 30.849091 3.3984523 17 0 0 0 0
-4.0491786 30.879303 3.3758121 11.5 0 0 0 0
-3.8465042 30.83004 3.3386395 16 0 0 0 0
-4.6809978 30.908596 3.3062732 8 0 0 0 0
-4.3287783 30.928238 3.3489909 8 0 0 0 0
-4.095017 30.999336 3.320086 12.25 0 0 0 0
14.917419 31.724222 3.5395658 20 0 0 0 0
15.078364 31.774492 3.3596041 12 0 0 0 0
14.930515 31.889168 3.3977232 14.5 0 0 0 0
14.979176 32.253548 3.5290008 18.5 0 0 0 0
14.876024 32.615822 3.365099 14 0 0 0 0
14.910202 32.810616 3.3876595 19.25 0 0 0 0
15.039618 32.926174 3.5193918 17 0 0 0 0
-6.3513756 33.099205 3.4060614 12 0 0 0 0
-6.1860185 33.112701 3.4673991 10 0 0 0 0
-5.7967672 33.177612 3.3372121 8 0 0 0 0
14.840944 33.132671 3.350472 16.522787 0 0 0 0
15.092624 33.128185 3.5515113 21 0 0 0 0
-4.6635742 33.453014 3.3780806 10.5 0 0 0 0
14.88228 33.389809 3.5243139 17 0 0 0 0
14.904072 33.638699 3.4588146 20.5 0 0 0 0
14.934158 33.981361 3.5316329 22.3125 0 0 0 0
15.041547 34.052883 3.469162 22 0 0 0 0
14.938948 34.251202 3.3833444 18.625 0 0 0 0
15.02801 34.402401 3.449399 10 0 0 0 0
14.940148 34.611485 3.549201 17.1875 0 0 0 0
15.024612 34.55687 3.5225096 19.5 0 0 0 0
14.88125 35.028461 3.4173381 13.8125 0 0 0 0
15.020697 34.969646 3.4883056 20 0 0 0 0
14.84583 35.333755 3.3742292 21.5 0 0 0 0
7.4902086 35.593102 3.5501039 10 0 0 0 0
7.6876302 35.568924 3.54266 10.625 0 0 0 0
14.933183 35.522594 3.4459729 18 0 0 0 0
14.931237 35.906036 3.517406 11.5 0 0 0 0
6.4234962 36.197189 3.5553441 12 0 0 0 0
14.77848 36.077 3.549077 13 0 0 0 0
14.913537 36.373135 3.4861581 22.375 0 0 0 0
5.9535689 37.038639 3.5615685 21 0 0 0 0
5.5182858 37.367783 3.3777189 13.75 0 0 0 0
5.9286757 37.318687 3.3611283 13.776566 0 0 0 0
6.1150551 37.305481 3.4884949 9.6381836 0 0 0 0
7.9532652 37.402279 3.4248729 10.875 0 0 0 0
5.4622231 38.029907 3.4234385 13 0 0 0 0
8.0050106 37.991344 3.4929245 10 0 0 0 0
8.1570663 37.968529 3.3227267 9 0 0 0 0
5.0990162 38.225784 3.4706302 14 0 0 0 0
5.243145 38.246876 3.4621494 14.75 0 0 0 0
5.4385586 38.191296 3.532445 17 0 0 0 0
7.7262616 40.103855 3.5532711 14 0 0 0 0
8.0556765 40.032749 3.4754784 13 0 0 0 0
6.5987382 40.431767 3.3582458 15 0 0 0 0
7.2721109 40.366352 3.5959485 16 0 0 0 0
7.6675777 40.358398 3.342983 15.5 0 0 0 0
6.8824129 40.558693 3.3596961 12 0 0 0 0
-2.2444959 -6.3087044 3.6544008 0 0 0 0 0
-18.002274 -6.1981325 3.7490492 5 0 0 0 0
-17.779427 -6.2073784 3.6373477 14.316853 0 0 0 0
-17.578449 -6.1853304 3.7842526 19.237518 0 0 0 0
-17.244766 -6.1799393 3.6708512 16.987732 0 0 0 0
-16.995441 -6.1735497 3.7132797 15.35478 0 0 0 0
-16.584274 -6.174212 3.7168775 16.457382 0 0 0 0
-16.333855 -6.1938486 3.6250875 13.168875 0 0 0 0
-16.024479 -6.1769981 3.6711125 11.120911 0 0 0 0
-15.852159 -6.2040296 3.6358299 6.2609863 0 0 0 0
-2.1315506 -6.2606449 3.7440653 2.6382351 0 0 0 0
-1.9364321 -6.1556625 3.7715969 16.901264 0 0 0 0
-1.7347937 -6.1755271 3.8787284 21.45532 0 0 0 0
0.29218775 -6.1096678 3.8607817 26.354168 0 0 0 0
0.45410091 -6.0775633 3.8342471 29.730259 0 0 0 0
0.6908536 -6.241025 3.6307983 17.826893 0 0 0 0
1.0936067 -6.1803589 3.7745628 8.8203125 0 0 0 0
1.4321656 -6.240365 3.7970386 5.3094387 0 0 0 0
1.6482074 -6.1672544 3.7995152 11.950573 0 0 0 0
1.8803662 -6.2001047 3.7578321 12.751534 0 0 0 0
2.3021932 -6.1595507 3.816453 17.962681 0 0 0 0
2.5393453 -6.1818604 3.7243614 8.4057922 0 0 0 0
2.8211002 -6.1808119 3.7014794 7.9419622 0 0 0 0
3.1143692 -6.2178211 3.8157165 11.277433 0 0 0 0
3.3265483 -6.2168531 3.7289429 2.9760742 0 0 0 0
2.1953914 -5.0486259 3.8421624 0 0 0 0 0
-17.569502 -4.5290251 3.8006663 4 0 0 0 0
-17.645002 -4.445147 3.8729455 3 0 0 0 0
1.1942773 -4.1555419 3.8740761 0 0 0 0 0
1.2066054 -4.1640563 3.8769865 0 0 0 0 0
2.1900945 -4.1508598 3.8224704 0.031739652 0 0 0 0
2.2510521 -3.1806166 3.7073517 0 0 0 0 0
-3.9741771 -2.4693015 3.8885586 25 0 0 0 0
-3.6212873 -2.4826913 3.8925347 15.31864 0 0 0 0
-3.5847778 -2.4974728 3.8842332 6.0976896 0 0 0 0
-3.0267229 -2.4071484 3.8857822 10.908863 0 0 0 0
-2.8466449 -2.5148184 3.8834548 7.7687206 0 0 0 0
-2.6441798 -2.4607031 3.882885 12.940042 0 0 0 0
2.2446492 -2.4517741 3.8690162 17.062077 0 0 0 0
2.458003 -2.455617 3.8659582 13.076577 0 0 0 0
2.9727805 -2.4616082 3.8741193 14.493855 0 0 0 0
3.1529143 -2.4798212 3.8098404 19.185417 0 0 0 0
3.4797821 -2.4215052 3.860316 20.707283 0 0 0 0
3.7319431 -2.4238501 3.8683 22.441528 0 0 0 0
4.0458388 -2.4383378 3.862833 19.125 0 0 0 0
-3.6855278 -2.3083806 3.893249 20.390625 0 0 0 0
-3.5603461 -2.3779869 3.8973246 13.419922 0 0 0 0
-3.1032493 -2.3303213 3.8848357 13.931416 0 0 0 0
-2.8990593 -2.3562019 3.8850424 21.442377 0 0 0 0
-2.6032069 -2.303997 3.8426499 18.551397 0 0 0 0
-2.208107 -2.2653096 3.8846564 11.104263 0 0 0 0
-2.0550356 -2.2803724 3.8789072 0 0 0 0 0
2.3158307 -2.3308668 3.8369336 31.047186 0 0 0 0
2.4944115 -2.2674875 3.818696 28.252544 0 0 0 0
2.8175683 -2.2569199 3.7530015 27.901331 0 0 0 0
3.1556542 -2.3260226 3.8459563 30.309072 0 0 0 0
3.3498318 -2.2891905 3.868773 32.402828 0 0 0 0
3.7909815 -2.3006201 3.8701484 30.550608 0 0 0 0
4.0601058 -2.3729582 3.8783765 28.0625 0 0 0 0
18.476692 -2.1719708 3.7886086 7.3471193 0 0 0 0
18.679989 -2.1658471 3.7831428 7.5744829 0 0 0 0
19.008457 -2.2220192 3.7289286 6.3151712 0 0 0 0
19.384117 -2.1417341 3.7981553 5.5233192 0 0 0 0
19.689877 -2.1639705 3.7647462 6.975883 0 0 0 0
19.893509 -2.1860557 3.7827969 5.6660156 0 0 0 0
20.138441 -2.1091359 3.8090615 5.5 0 0 0 0
-2.5381551 -2.0958247 3.6421845 23 0 0 0 0
2.8282654 -2.0867963 3.6301982 25.5 0 0 0 0
3.0635693 -2.0888333 3.6225524 26 0 0 0 0
18.846531 -2.0875604 3.8237486 7.9384766 0 0 0 0
19.067932 -2.0851088 3.852176 5.5643845 0 0 0 0
19.265369 -2.070029 3.8721123 5.2110596 0 0 0 0
19.603863 -2.0792658 3.867332 6.1308861 0 0 0 0
19.945822 -2.0654314 3.8772626 6.4285126 0 0 0 0
20.204082 -2.0756996 3.8424625 4.4609375 0 0 0 0
20.418911 -2.0806823 3.8585835 5 0 0 0 0
-17.474688 2.7798905 3.6109231 3 0 0 0 0
1.2249303 3.2417617 3.64536 0.00053668022 0 0 0 0
1.7344534 3.1472156 3.8995085 19.375 0 0 0 0
1.9119346 3.1552861 3.8909869 15.942966 0 0 0 0
2.1522071 3.2066083 3.7771382 10.977241 0 0 0 0
2.5882463 3.1750951 3.8984013 12.672254 0 0 0 0
2.8686068 3.1762137 3.8934841 9.8678675 0 0 0 0
3.166326 3.1686144 3.8900452 15.270271 0 0 0 0
3.4493818 3.1719506 3.8916178 13.891868 0 0 0 0
3.7629676 3.1379576 3.8945384 25.345322 0 0 0 0
4.0569124 3.1597931 3.8902149 22.688614 0 0 0 0
4.3091679 3.1313615 3.8924332 30.453125 0 0 0 0
-0.41505435 3.530467 3.8333869 32.471527 0 0 0 0
-0.298219 3.5506673 3.828006 38 0 0 0 0
-0.67640686 3.8230057 3.7783957 13.503824 0 0 0 0
-0.42884946 3.8178909 3.8321438 31.149315 0 0 0 0
-0.284549 3.7351067 3.8291907 36.934593 0 0 0 0
-0.94036543 3.9418416 3.7352257 0 0 0 0 0
-0.69555843 3.9686439 3.807379 9 0 0 0 0
-0.44751507 4.1251879 3.8256116 21.598759 0 0 0 0
-0.26067361 4.1795006 3.826438 38.703857 0 0 0 0
0.21983021 3.9347651 3.6302903 4.2915344e-06 0 0 0 0
1.1964256 3.9562519 3.611938 1 0 0 0 0
1.2165115 3.958138 3.667371 0.1227354 0 0 0 0
2.206676 3.9609461 3.7716193 0.095703125 0 0 0 0
-0.44280368 4.2745943 3.8316731 19.50445 0 0 0 0
-0.25654677 4.3909888 3.8230844 37.343163 0 0 0 0
-0.94745564 4.791584 3.7509317 0 0 0 0 0
-0.41979349 4.6165338 3.8296654 30.593834 0 0 0 0
-0.24082744 4.684278 3.8208861 32.275616 0 0 0 0
1.1430151 4.7782474 3.8061008 0.00390625 0 0 0 0
2.198772 4.7826285 3.8613083 0 0 0 0 0
-0.95092309 4.8043923 3.7276134 0 0 0 0 0
-0.412166 4.8637695 3.8247643 25.397125 0 0 0 0
-0.25550902 4.9425836 3.8180337 31.374504 0 0 0 0
1.1394612 4.802268 3.8309512 0 0 0 0 0
2.2023115 4.8061891 3.8072739 0 0 0 0 0
-1.5468134 5.2735443 3.7531676 0.87595022 0 0 0 0
-1.299044 5.2851362 3.7350798 1.1197661 0 0 0 0
-1.0289407 5.2761765 3.7483549 1.0390882 0 0 0 0
-0.67361045 5.3470182 3.6800432 12.363079 0 0 0 0
-0.5042789 5.3441911 3.7882442 21.372162 0 0 0 0
-0.22928487 5.327322 3.7447348 24.480247 0 0 0 0
0.24724209 5.281877 3.7243879 1.9833984 0 0 0 0
0.47695029 5.3065147 3.7153156 0.92429399 0 0 0 0
0.70361567 5.2629747 3.7369885 5.149838 0 0 0 0
1.0493097 5.3434753 3.7115185 0.58932042 0 0 0 0
1.373328 5.2992439 3.7381923 0.69194251 0 0 0 0
1.6635394 5.2912107 3.7204487 1.2077115 0 0 0 0
1.9974062 5.3285208 3.7092009 0.87015104 0 0 0 0
2.2340717 5.3161926 3.7477982 0.74627149 0 0 0 0
2.4553018 5.3143768 3.7206821 0.703125 0 0 0 0
2.8946257 5.3316975 3.7316394 0 0 0 0 0
-1.757532 5.4662228 3.830759 0.5 0 0 0 0
-0.63595164 5.5471201 3.7114711 30.75 0 0 0 0
-0.52720726 5.4298553 3.6279755 28.253424 0 0 0 0
-0.20465344 5.4313116 3.6225743 30.711914 0 0 0 0
0.12996824 5.6152172 3.7616489 34.427834 0 0 0 0
0.35723251 5.4911332 3.8188028 12.15269 0 0 0 0
0.79123259 5.4223719 3.7568579 2 0 0 0 0
1.503619 5.4988098 3.8150315 1 0 0 0 0
2.2421198 5.4296989 3.7558475 3.9375 0 0 0 0
-1.9384701 5.8314829 3.8695974 5.7214355 0 0 0 0
-1.6500869 5.8203592 3.8481276 30.08345 0 0 0 0
-1.3011461 5.8985558 3.8293467 29.568544 0 0 0 0
-1.0182173 5.8728333 3.8232718 29.242491 0 0 0 0
-0.78314483 5.9088602 3.8217351 29.932598 0 0 0 0
0.26309195 5.7925301 3.7309008 35.193977 0 0 0 0
0.32356906 5.7985635 3.8365202 36.897011 0 0 0 0
0.80535865 5.8547106 3.815203 30.381805 0 0 0 0
1.0715256 5.7901721 3.8771563 30.353331 0 0 0 0
1.2989205 5.884655 3.8169527 30.682499 0 0 0 0
1.6451681 5.7940769 3.8648419 34.030525 0 0 0 0
1.9383378 5.8781543 3.8101244 29.646034 0 0 0 0
2.3155882 5.94069 3.8026242 25.305752 0 0 0 0
2.6406608 5.8639021 3.8103495 25.281229 0 0 0 0
2.8098645 5.9522886 3.7937841 24.659382 0 0 0 0
3.0826278 5.8633986 3.7977815 29.235687 0 0 0 0
3.3995903 5.9175606 3.8003731 32.729424 0 0 0 0
-1.9756713 6.0788016 3.816174 2.4266601 0 0 0 0
-1.5988991 6.0557804 3.8177552 30.480894 0 0 0 0
-1.3271289 6.0663586 3.8058171 7.3339944 0 0 0 0
-1.0132998 6.053853 3.8147795 31.200109 0 0 0 0
-0.83815682 6.0215759 3.8177164 30.199272 0 0 0 0
0.25475252 6.0738497 3.8063815 29.390625 0 0 0 0
0.41023064 6.0895243 3.8049784 12.325174 0 0 0 0
0.72188759 6.030025 3.8136117 27.163088 0 0 0 0
1.011981 6.0745859 3.7926183 17.565899 0 0 0 0
1.346452 6.1135421 3.8040762 10.08486 0 0 0 0
1.6313426 6.0633316 3.8055639 29.439074 0 0 0 0
1.9242177 6.0979118 3.8003125 16.689381 0 0 0 0
2.1787462 6.0635815 3.7931998 20.827072 0 0 0 0
2.4792023 6.0655193 3.7856007 12.476442 0 0 0 0
2.8390865 6.1001625 3.7784164 8.6420708 0 0 0 0
3.0846424 6.0578413 3.7837105 17.322754 0 0 0 0
3.5351548 6.0339012 3.8007591 32.375 0 0 0 0
-3.6282387 8.3497448 3.845624 1.5473633 0 0 0 0
-3.5083816 8.3545046 3.8730106 1.8931693 0 0 0 0
-3.0048668 8.3664446 3.8895748 1 0 0 0 0
-2.9070988 8.3268795 3.8205187 8.9671965 0 0 0 0
-2.6709445 8.3401337 3.8386755 31.986603 0 0 0 0
-2.2300501 8.3333035 3.8421545 33.101562 0 0 0 0
-2.0180459 8.3374319 3.8427954 33.5 0 0 0 0
1.4996262 8.3877611 3.7873709 27 0 0 0 0
1.5527875 8.3609161 3.8390794 29.977051 0 0 0 0
2.0211875 8.362114 3.8288388 22.427464 0 0 0 0
2.1909204 8.3777819 3.8044524 27.283573 0 0 0 0
2.5065432 8.3737488 3.8266656 32.593895 0 0 0 0
2.8987317 8.3758068 3.8201623 30.696058 0 0 0 0
3.0964198 8.3721275 3.8562014 34.715618 0 0 0 0
3.5402889 8.3718357 3.8601251 19.622345 0 0 0 0
3.7077003 8.3828306 3.8935132 22 0 0 0 0
