# .PCD v0.7 - Point Cloud Data file format
VERSION 0.7
FIELDS x y z intensity normal_x normal_y normal_z curvature
SIZE 4 4 4 4 4 4 4 4
TYPE F F F F F F F F
COUNT 1 1 1 1 1 1 1 1
WIDTH 1031
HEIGHT 1
VIEWPOINT 0 0 0 1 0 0 0
POINTS 1031
DATA ascii
10.596588 11.82029 1.8700079 3.4919639 0 0 0 0
12.839716 11.849962 1.8546929 4.6551123 0 0 0 0
12.90243 11.799387 1.8755137 2 0 0 0 0
-13.434245 12.104862 1.8657211 5.0756836 0 0 0 0
7.9876671 12.275665 2.0085518 5.0522203 0 0 0 0
8.1133013 12.096231 1.8850197 4.0742188 0 0 0 0
10.17173 12.202528 1.8716328 38.466549 0 0 0 0
10.216993 12.05034 1.9447293 27.842171 0 0 0 0
12.82976 12.141529 1.984623 2.9818139 0 0 0 0
-13.500779 12.336756 2.0990486 4 0 0 0 0
-13.455706 12.545593 1.940971 5.1734796 0 0 0 0
7.990438 12.42659 1.9838433 4.7639623 0 0 0 0
9.6245403 12.596437 1.9499744 38 0 0 0 0
10.183463 12.435968 1.9844117 37.06472 0 0 0 0
10.22538 12.337302 1.9191713 34.707031 0 0 0 0
12.816167 12.37613 1.9844003 5.1722145 0 0 0 0
-13.426183 12.741971 1.9804858 6.7553082 0 0 0 0
7.9945984 12.732768 1.95823 4.5561857 0 0 0 0
8.984808 12.836957 2.0148866 35.5 0 0 0 0
9.2156239 12.796911 2.0521016 40.893593 0 0 0 0
9.3631496 12.801722 2.0402584 37.316734 0 0 0 0
9.717267 12.790249 2.0497079 38.073654 0 0 0 0
10.063509 12.818816 1.9559845 41.472595 0 0 0 0
10.202738 12.771774 1.8446001 33 0 0 0 0
12.799835 12.796474 2.0474606 4.7336988 0 0 0 0
12.928338 12.737435 2.0812082 2 0 0 0 0
15.423138 12.847145 1.8920488 27.571774 0 0 0 0
-13.43684 13.083641 1.9671183 4.707056 0 0 0 0
7.9841013 13.059973 1.9422486 4.4459648 0 0 0 0
8.3508396 12.95041 2.0267713 14.666667 0 0 0 0
8.9828548 13.017435 1.9318068 36.875 0 0 0 0
9.1314259 13.01351 1.9111156 42.587631 0 0 0 0
9.5272217 12.957062 1.9475431 37.07584 0 0 0 0
9.7218113 13.091895 1.8903048 32.750023 0 0 0 0
10.152547 13.069529 1.8480165 34.734955 0 0 0 0
10.211462 13.114358 1.8116369 34 0 0 0 0
12.81773 13.008781 1.9043015 4.2965965 0 0 0 0
15.254656 13.179041 1.9967477 21.985807 0 0 0 0
15.399834 13.020979 2.046701 22.002348 0 0 0 0
-17.54262 13.471109 1.9803553 20.1875 0 0 0 0
-14.523739 13.442587 1.9556838 7.59375 0 0 0 0
-14.372843 13.468411 1.951679 9 0 0 0 0
-13.909063 13.488049 1.9232825 13.5 0 0 0 0
-13.503531 13.242359 2.044446 12.5 0 0 0 0
-13.459959 13.305294 2.0077801 9.2664061 0 0 0 0
7.7081079 13.421802 1.9067426 25.928162 0 0 0 0
7.9983058 13.327364 1.9709438 5.4401898 0 0 0 0
8.9722271 13.243323 1.8260039 25 0 0 0 0
9.2230568 13.256535 1.8191012 29.975637 0 0 0 0
9.4315472 13.230787 1.8131673 38.121193 0 0 0 0
9.7986412 13.23331 1.8380175 36.517048 0 0 0 0
10.043662 13.250103 1.8249005 37.973907 0 0 0 0
12.822803 13.355116 2.0473258 5.9482203 0 0 0 0
12.900019 13.499772 2.0502529 14 0 0 0 0
15.141613 13.387323 2.066812 22.522081 0 0 0 0
15.312017 13.308567 2.0757353 14 0 0 0 0
-17.520061 13.682485 1.8858383 25.670639 0 0 0 0
-14.134787 13.544128 2.0698471 3 0 0 0 0
-13.945336 13.608134 1.9175005 14.265625 0 0 0 0
-13.5963 13.533979 1.9784496 15 0 0 0 0
-13.40677 13.522212 2.0704951 7.5 0 0 0 0
7.2689543 13.611689 1.9582405 32.666225 0 0 0 0
7.6819973 13.541249 1.9329773 40.534626 0 0 0 0
7.9243283 13.539832 2.0536385 28.242643 0 0 0 0
12.838717 13.640483 2.0124393 11.912997 0 0 0 0
13.050294 13.639553 1.9695376 14.883362 0 0 0 0
13.256754 13.709558 1.9851125 17.247917 0 0 0 0
13.768746 13.564677 1.9725168 14 0 0 0 0
15.202425 13.529249 2.0857697 37.65625 0 0 0 0
-17.495945 13.988786 2.0022025 25.483273 0 0 0 0
7.242641 13.872716 1.8745974 29.017548 0 0 0 0
12.811333 13.928388 1.9252259 14.020833 0 0 0 0
13.152052 13.821877 2.0010855 14.875 0 0 0 0
13.226795 13.828908 2.0170295 15.6875 0 0 0 0
-17.484798 14.152296 1.9860675 7.84375 0 0 0 0
7.1899061 14.168852 2.0541329 6.4293423 0 0 0 0
7.2171011 14.246392 2.0085535 4.1652441 0 0 0 0
12.837275 14.462699 2.0835261 9 0 0 0 0
8.0170994 15.867037 1.879581 2 0 0 0 0
8.0088253 16.121258 1.8761904 3.5279131 0 0 0 0
8.1114273 16.110155 2.0376794 6 0 0 0 0
7.9691811 16.243855 1.8569522 3.470191 0 0 0 0
8.130928 16.328781 2.0007319 3.3410645 0 0 0 0
-14.508121 29.686028 1.9411619 17.862793 0 0 0 0
-14.259791 29.690744 1.9724807 27 0 0 0 0
-14.812723 29.743179 1.997056 6.5 0 0 0 0
-14.617523 29.714649 1.9148405 11.90625 0 0 0 0
-14.28586 29.727432 1.9763734 25.579264 0 0 0 0
-13.973537 29.886497 2.0110409 20.607681 0 0 0 0
-13.900464 30.177174 1.9251189 12.875 0 0 0 0
-13.866634 30.402237 2.040751 9.9375 0 0 0 0
-13.764668 30.457424 1.9882591 9.5 0 0 0 0
-4.7212648 31.691715 1.9914494 10.25 0 0 0 0
-4.6590915 31.878252 1.939188 12 0 0 0 0
-4.2701459 32.277367 1.9030819 13.75 0 0 0 0
-4.0326653 32.24622 2.0540109 12.78125 0 0 0 0
-5.7880993 32.631573 2.0357437 12.5 0 0 0 0
-5.4970732 32.437717 2.0510335 16 0 0 0 0
-5.3655829 32.561874 1.9407094 16.5 0 0 0 0
-4.9823799 32.501381 2.0163376 10.125 0 0 0 0
-6.2543273 34.00843 1.831498 12 0 0 0 0
8.0313473 35.628029 1.953753 11 0 0 0 0
8.2732525 35.568924 2.0386581 12.484375 0 0 0 0
8.5355492 35.562443 1.8930864 12.6875 0 0 0 0
8.7791357 35.670685 1.8771921 18 0 0 0 0
6.2394109 35.870579 2.0946264 13 0 0 0 0
6.4205551 35.809216 1.8844635 12 0 0 0 0
6.7464509 35.871799 2.0402112 13.25 0 0 0 0
7.942224 35.76963 1.9866607 13.076172 0 0 0 0
8.1621037 35.830235 2.0100045 15.5 0 0 0 0
8.5844507 35.853912 2.0226197 13.75 0 0 0 0
8.8542938 35.945976 1.9910965 13.5 0 0 0 0
5.6433439 36.20488 2.0438561 11 0 0 0 0
5.9706535 36.136215 2.0752025 14.75 0 0 0 0
6.0135694 36.138088 1.938766 13.5 0 0 0 0
8.2503929 36.017078 2.0817361 19 0 0 0 0
8.8551416 36.095703 2.022171 14 0 0 0 0
9.0635576 36.249191 2.030242 13.839193 0 0 0 0
9.5238495 36.247238 1.892735 13.5 0 0 0 0
9.8250408 36.274376 1.8915299 17 0 0 0 0
5.8804212 36.300953 1.9956849 19 0 0 0 0
9.1968775 36.329025 2.0569029 14 0 0 0 0
9.4813538 36.326733 1.9589491 9 0 0 0 0
9.7937117 36.441212 1.9509053 12.25 0 0 0 0
9.993185 36.487679 2.0586817 10.75 0 0 0 0
10.221945 36.623142 1.8689194 13 0 0 0 0
-14.731972 37.88945 1.9337556 13 0 0 0 0
-14.590226 37.818222 2.067682 14 0 0 0 0
-14.267952 37.876053 1.9438879 27 0 0 0 0
-13.93829 37.902199 2.0466647 23.5 0 0 0 0
-13.789914 38.035049 1.8515215 12 0 0 0 0
15.324702 -6.3065295 2.3054409 2.5 0 0 0 0
-17.455624 -6.0818653 2.2211251 9.7949219 0 0 0 0
-17.280943 -6.0792055 2.1998272 11.536786 0 0 0 0
-16.975224 -6.0866504 2.2185936 11.230469 0 0 0 0
-16.582527 -6.0756683 2.2450061 10.956909 0 0 0 0
-16.263412 -6.0612144 2.22451 9.208252 0 0 0 0
-16.081182 -6.0851145 2.2056489 10.544891 0 0 0 0
-15.743139 -6.0704546 2.3012342 10.105408 0 0 0 0
-15.423771 -6.0875053 2.1763299 8.5 0 0 0 0
-15.288235 -6.0593152 2.2487102 6 0 0 0 0
-13.848418 -6.0517116 2.2707992 13.3125 0 0 0 0
-13.651049 -6.0909057 2.1875012 8.8081264 0 0 0 0
-13.283741 -6.0776525 2.2580242 8.2662792 0 0 0 0
-13.093212 -6.0682669 2.1480441 10.457102 0 0 0 0
-12.778263 -6.0964651 2.2632771 8.1775742 0 0 0 0
-12.379433 -6.0728016 2.3105736 13.809525 0 0 0 0
-12.093407 -6.0707998 2.2741323 19.012985 0 0 0 0
-11.91262 -6.0674858 2.2436311 21.746315 0 0 0 0
-11.457788 -6.0649981 2.3557611 18.638161 0 0 0 0
-11.240826 -6.0637598 2.2506046 18.46669 0 0 0 0
-10.90233 -6.0599661 2.3222625 21.487576 0 0 0 0
-10.693383 -6.0598993 2.2975857 20.505209 0 0 0 0
-10.327636 -6.0505781 2.3307729 20.5 0 0 0 0
-10.086658 -6.0663605 2.3242369 20.125 0 0 0 0
7.3168335 -6.0656595 2.23138 22.824749 0 0 0 0
15.264791 -6.1311874 2.2837715 19.423681 0 0 0 0
15.321962 -6.2365303 2.2810874 7.8043289 0 0 0 0
23.696209 -6.0375652 2.3664274 5.5 0 0 0 0
23.815559 -6.0514178 2.2595425 6.4967713 0 0 0 0
24.060143 -6.0204663 2.1954353 9.4101706 0 0 0 0
24.499516 -6.0205131 2.2575238 9.9346313 0 0 0 0
24.740379 -6.0133686 2.2364936 8.0190926 0 0 0 0
25.04652 -6.0290947 2.2130849 9.2937517 0 0 0 0
25.388651 -6.0150242 2.2971308 10.292969 0 0 0 0
25.676102 -6.0169802 2.2873437 9.0154858 0 0 0 0
26.027428 -6.0391359 2.3202324 9.8515625 0 0 0 0
26.296886 -6.0371809 2.1936722 10.124554 0 0 0 0
26.564899 -6.0201817 2.2373915 9.9768066 0 0 0 0
26.860405 -6.0156603 2.2556276 9.8666248 0 0 0 0
27.155531 -6.0366378 2.2623456 10.597015 0 0 0 0
27.454714 -6.0290551 2.2041726 9.2913361 0 0 0 0
27.726955 -6.0423336 2.2461448 11.112854 0 0 0 0
28.118893 -6.0208559 2.2824535 10.140625 0 0 0 0
28.407158 -6.0109482 2.3113465 9.7202148 0 0 0 0
28.703196 -6.0260444 2.2793128 10.362305 0 0 0 0
28.888939 -6.0188112 2.3004901 9.53125 0 0 0 0
29.314205 -6.0427961 2.2977543 7.3408203 0 0 0 0
29.536043 -6.0196052 2.2789958 10.526367 0 0 0 0
29.887926 -6.0072503 2.2939355 9.828125 0 0 0 0
30.105713 -6.0534625 2.2238121 11.625 0 0 0 0
30.458012 -6.0094929 2.3109369 13.25 0 0 0 0
30.781837 -6.0273886 2.1412475 9 0 0 0 0
31.01346 -6.0081396 2.1189044 6 0 0 0 0
31.54438 -6.0366745 2.2875099 10 0 0 0 0
31.93026 -6.0319695 2.1391933 13 0 0 0 0
-14.156644 -5.7012053 2.1803632 7 0 0 0 0
-13.997892 -5.8360872 2.1465497 6.1097002 0 0 0 0
7.3619266 -5.8279023 2.1848905 33.140587 0 0 0 0
7.5138898 -5.7111063 2.1226745 30 0 0 0 0
15.226456 -5.8825912 2.197226 38.305435 0 0 0 0
15.320282 -5.7144961 2.1435215 33.871094 0 0 0 0
21.890961 -5.7643609 2.1292906 14 0 0 0 0
21.939863 -5.7574925 2.2669339 15.359314 0 0 0 0
23.926537 -5.9960594 2.2720973 8 0 0 0 0
24.177628 -5.9832811 2.3527219 9.4375 0 0 0 0
24.391216 -5.9827919 2.2663946 10.625 0 0 0 0
24.80999 -5.9938602 2.3243504 10.726562 0 0 0 0
25.051691 -5.9656172 2.3451002 7.328125 0 0 0 0
25.391331 -5.9845104 2.3224473 10.203125 0 0 0 0
25.642963 -5.9897962 2.3335264 9.375 0 0 0 0
26.050968 -5.990778 2.3066454 9.296875 0 0 0 0
26.274357 -5.978941 2.2233222 7.375 0 0 0 0
26.501778 -5.9909182 2.1993256 7.7109375 0 0 0 0
26.799728 -5.9891253 2.3065491 9.09375 0 0 0 0
27.141306 -5.9700546 2.2306457 7.8867188 0 0 0 0
27.51403 -5.9839849 2.1880221 8.875 0 0 0 0
27.664217 -5.9839129 2.1920347 9.109375 0 0 0 0
28.416706 -5.9917364 2.2665734 10.875 0 0 0 0
28.577419 -5.9689941 2.2997813 9.53125 0 0 0 0
28.911339 -5.9794006 2.2041428 10.25 0 0 0 0
29.22649 -5.9682164 2.2201078 10 0 0 0 0
29.573219 -5.9820509 2.1887009 9 0 0 0 0
29.821621 -5.9924431 2.2830958 9 0 0 0 0
30.11631 -5.9893718 2.1448126 10.5 0 0 0 0
30.433155 -5.9824009 2.2068086 8.625 0 0 0 0
30.698452 -5.991559 2.1978235 9.5 0 0 0 0
31.036011 -5.9979944 2.233047 6.625 0 0 0 0
31.459402 -5.9914627 2.2407274 8.5 0 0 0 0
7.4558659 -5.6737337 2.3215446 39.198326 0 0 0 0
7.6573982 -5.622036 2.2087543 23.013609 0 0 0 0
15.294933 -5.6944394 2.3287964 40 0 0 0 0
15.361589 -5.66887 2.1790771 33.845718 0 0 0 0
22.084057 -5.6619282 2.2014165 6.875545 0 0 0 0
15.586976 -2.7925234 2.2662568 63.679688 0 0 0 0
15.682274 -2.8507786 2.166739 30.041792 0 0 0 0
-7.9324813 -2.5922756 2.2818577 9.9006491 0 0 0 0
7.3838539 -2.5690231 2.2038918 18.467422 0 0 0 0
7.5029364 -2.6977675 2.2932379 0 0 0 0 0
15.202322 -2.439698 2.2116268 38.032631 0 0 0 0
15.343157 -2.6002655 2.1714587 28.854286 0 0 0 0
20.582397 -2.5474782 2.1178153 4 0 0 0 0
21.857807 -2.5558066 2.2351336 22.752623 0 0 0 0
-7.8739233 -2.3602481 2.288384 13.505496 0 0 0 0
-0.52352053 -2.148458 2.2620473 16.027607 0 0 0 0
-0.04503629 -2.1339707 2.2419691 18.619213 0 0 0 0
0.045510367 -2.2655029 2.29772 6.8287535 0 0 0 0
7.3616829 -2.2250764 2.1455457 33.98703 0 0 0 0
15.223901 -2.2182565 2.1706443 25.313751 0 0 0 0
21.810291 -2.222065 2.3213735 57.066513 0 0 0 0
-8.144165 -2.0790648 2.284023 14.976171 0 0 0 0
-8.0738888 -2.0871456 2.2431555 22.239584 0 0 0 0
-0.41717809 -2.0738688 2.2282922 19.556183 0 0 0 0
-0.20748818 -2.0714245 2.1860561 21.914944 0 0 0 0
7.45755 -2.0804644 2.1864891 31.062737 0 0 0 0
7.5771766 -2.0298865 2.2218173 19.282326 0 0 0 0
15.266726 -2.0650611 2.1179509 17.5 0 0 0 0
15.342105 -1.8387433 2.1369185 2 0 0 0 0
21.827961 -2.0707829 2.2315087 48.569454 0 0 0 0
21.917536 -2.0077395 2.217576 7.7324219 0 0 0 0
22.728535 -1.9628932 2.2903953 51.576984 0 0 0 0
15.278526 -1.6782484 2.1121392 1.5 0 0 0 0
15.339002 -1.6559577 2.1140947 1.9687138 0 0 0 0
22.720253 -1.6393019 2.3157201 49.062916 0 0 0 0
-30.97463 -1.4211159 2.3182797 25.166666 0 0 0 0
15.37066 -1.2462494 2.1093855 1.859375 0 0 0 0
22.71294 -1.2976028 2.29321 57.369507 0 0 0 0
15.349372 -1.0904543 2.1179695 2.9602563 0 0 0 0
22.70573 -1.1103363 2.3430462 58.193039 0 0 0 0
-30.975307 -0.72142756 2.1656265 24.180555 0 0 0 0
-17.412764 -0.67088985 2.1946282 102.5 0 0 0 0
15.258332 -0.69674289 2.1064713 2 0 0 0 0
15.367189 -0.66735578 2.1377969 2.0292969 0 0 0 0
22.72043 -0.76864672 2.3083498 60.152336 0 0 0 0
-30.970507 -0.45856377 2.2568705 20.320095 0 0 0 0
-17.412876 -0.45131487 2.2904382 78.75 0 0 0 0
15.253237 -0.41006464 2.3767066 14.033485 0 0 0 0
15.358588 -0.55028117 2.1350975 2.4414062 0 0 0 0
-30.978416 -0.19829579 2.2112775 19.665039 0 0 0 0
-17.422134 -0.17597854 2.2644727 76.958336 0 0 0 0
-17.387688 -0.01333352 2.33935 93 0 0 0 0
15.197991 -0.18483932 2.3688421 56.921616 0 0 0 0
-30.974443 0.19933201 2.2092953 21.825821 0 0 0 0
-17.426285 0.14793929 2.195461 103.7473 0 0 0 0
15.207054 0.16663322 2.1682668 57.64518 0 0 0 0
-30.977123 0.44958639 2.3264327 20.897461 0 0 0 0
-17.416058 0.45124665 2.2744825 98.04541 0 0 0 0
-17.388529 0.46802804 2.3498402 53.5 0 0 0 0
15.188911 0.3380608 2.2745423 62.781097 0 0 0 0
-30.984049 0.79604304 2.1662726 19.449003 0 0 0 0
-17.419912 0.75712472 2.2187262 106.37382 0 0 0 0
-17.398964 0.75299579 2.3742757 91 0 0 0 0
15.185463 0.85724676 2.2783666 63.921135 0 0 0 0
-30.986872 1.058255 2.2136478 20.544678 0 0 0 0
-17.423012 1.1287158 2.2213392 93.857597 0 0 0 0
-17.395729 1.0592184 2.38482 84.604172 0 0 0 0
-4.1028619 1.0349004 2.2578359 6.1922913 0 0 0 0
15.19487 1.0179543 2.2831616 58.76318 0 0 0 0
-30.985649 1.3906337 2.2234163 21.278994 0 0 0 0
-17.424019 1.3050272 2.2472572 104.2232 0 0 0 0
-17.395117 1.2734985 2.3728971 82.9375 0 0 0 0
-3.9865351 1.4721365 2.1629925 1.0019531 0 0 0 0
15.185968 1.3051598 2.1729655 64.677635 0 0 0 0
-30.980061 1.6004565 2.1607046 14.529762 0 0 0 0
-17.419334 1.6640819 2.2168593 103.00897 0 0 0 0
-17.386688 1.6163349 2.3700213 85 0 0 0 0
-4.1200137 1.6580114 2.1594307 2.0052085 0 0 0 0
15.208961 1.7274675 2.1524069 59.549919 0 0 0 0
-30.963331 2.0062406 2.26966 21.832134 0 0 0 0
-17.428116 2.0338621 2.1830816 103.43416 0 0 0 0
-17.399971 1.8268648 2.3872232 89 0 0 0 0
-4.1195116 1.899994 2.1115582 3.03125 0 0 0 0
15.20561 1.9015169 2.3037796 59.304672 0 0 0 0
-30.979248 2.1609721 2.1631937 21.462429 0 0 0 0
-17.421391 2.1905041 2.2879472 99.711823 0 0 0 0
-17.386536 2.1811776 2.3906024 88.5 0 0 0 0
-4.129437 2.2322359 2.1201138 5.25 0 0 0 0
15.19794 2.2581739 2.3431458 54.88522 0 0 0 0
-30.986856 2.6149495 2.3062649 20.77581 0 0 0 0
-17.423872 2.6100087 2.236218 97.329414 0 0 0 0
-17.399054 2.6427486 2.3947484 89 0 0 0 0
-4.148941 2.4033175 2.1510432 0 0 0 0 0
15.214299 2.422605 2.3068998 32.187492 0 0 0 0
15.387485 2.643285 2.2067399 2.9697342 0 0 0 0
-31.002125 2.9173095 2.2454314 15.230993 0 0 0 0
-17.42931 2.7449093 2.3000839 103.00681 0 0 0 0
-17.383545 2.994169 2.3647656 73 0 0 0 0
-4.1413364 2.807929 2.3131433 4.25 0 0 0 0
15.392256 2.8749547 2.2491632 3.4080906 0 0 0 0
-30.979589 3.2242568 2.263617 15.489229 0 0 0 0
-17.422152 3.1508596 2.2899361 90.939957 0 0 0 0
-17.385134 3.0384288 2.3278413 75.5 0 0 0 0
15.37936 3.2059717 2.2141826 3.0290656 0 0 0 0
-31.000839 3.4399319 2.2979317 17.045965 0 0 0 0
-17.409622 3.4923115 2.2289391 71.913422 0 0 0 0
-17.389656 3.3669882 2.172564 63.5 0 0 0 0
15.39268 3.3580716 2.2311974 2.9709277 0 0 0 0
-30.979694 3.6531026 2.2315755 20.105122 0 0 0 0
-17.43224 3.7243795 2.1799591 90.86647 0 0 0 0
-17.397789 3.8604131 2.2345028 78.375 0 0 0 0
15.403581 3.8134925 2.2701001 5.7839355 0 0 0 0
-31.000362 4.0613203 2.3021498 18.020849 0 0 0 0
-17.42943 4.0838337 2.1983914 81.286911 0 0 0 0
-17.395664 4.039588 2.349633 77.75 0 0 0 0
15.369705 3.9257333 2.2392099 6.4193373 0 0 0 0
-30.982582 4.3103075 2.2726731 22.452221 0 0 0 0
-18.695724 4.3836579 2.1010897 3 0 0 0 0
-17.415054 4.2640209 2.2300451 89.159805 0 0 0 0
15.413944 4.3169489 2.2196834 4.5993433 0 0 0 0
-30.978094 4.6525669 2.1708632 25.11861 0 0 0 0
-17.520409 4.7147932 2.2291408 12.256528 0 0 0 0
15.39521 4.7376232 2.2734575 3.3423595 0 0 0 0
-30.987564 4.8936787 2.2244058 20.873861 0 0 0 0
-30.70525 4.9441652 2.2235012 12.84375 0 0 0 0
-30.500025 4.9783053 2.248641 17.261618 0 0 0 0
-17.50848 5.0268841 2.1629605 3.3562934 0 0 0 0
15.241898 5.0049624 2.1724253 35.366859 0 0 0 0
15.35869 4.8781223 2.3498125 7.9431372 0 0 0 0
15.602395 4.9745755 2.3326452 4 0 0 0 0
-30.484991 5.3163419 2.2779267 22.803223 0 0 0 0
-17.495823 5.2022572 2.258153 14.209625 0 0 0 0
-14.511902 5.3549204 2.2955132 7.6240554 0 0 0 0
-14.272513 5.3660159 2.2371862 13.717382 0 0 0 0
-13.94245 5.3685288 2.2052746 25.788475 0 0 0 0
-8.4681129 5.3891621 2.2806342 8.7604828 0 0 0 0
-8.2046995 5.3953352 2.2805262 6.7728806 0 0 0 0
-0.54371494 5.3622923 2.2160273 25.285715 0 0 0 0
-0.21669532 5.3672991 2.1748235 32.63158 0 0 0 0
7.3096538 5.3758006 2.1599874 33 0 0 0 0
7.9327912 5.3973455 2.2165704 9.25 0 0 0 0
13.775033 5.395977 2.3585899 14.5 0 0 0 0
13.925448 5.3772292 2.2311151 3.7705078 0 0 0 0
15.201271 5.3547039 2.3598766 76.537651 0 0 0 0
15.340111 5.1486683 2.1331737 29.5 0 0 0 0
-30.4855 5.6378164 2.3210864 22.15625 0 0 0 0
-17.502012 5.5376897 2.2682519 22.59449 0 0 0 0
-14.210855 5.4506788 2.2640393 9.4375 0 0 0 0
-13.873491 5.6438351 2.3252141 37.235279 0 0 0 0
-8.4795275 5.4247308 2.2874348 2.0625 0 0 0 0
-8.2231798 5.417304 2.278096 15.130545 0 0 0 0
-7.9789968 5.565639 2.2739711 14.71568 0 0 0 0
-0.62022913 5.419219 2.315872 5.12679 0 0 0 0
-0.55507404 5.4257603 2.2537558 26.424179 0 0 0 0
-0.22952989 5.4267502 2.2483363 31.315742 0 0 0 0
0.071489953 5.5250354 2.1666708 32.614933 0 0 0 0
7.3164902 5.4844942 2.2961962 32.626095 0 0 0 0
7.7060852 5.4410338 2.2205048 28.580862 0 0 0 0
7.9639664 5.4242744 2.1422119 5.399683 0 0 0 0
13.304802 5.4778123 2.3002005 46.760277 0 0 0 0
13.644632 5.43013 2.248673 28.215307 0 0 0 0
13.861589 5.4322352 2.2991676 13.848989 0 0 0 0
15.186546 5.560173 2.3367534 71.328445 0 0 0 0
-30.476147 5.7422414 2.2076194 15.804688 0 0 0 0
-29.901484 5.787405 2.1070621 8 0 0 0 0
-29.606365 5.7784061 2.1721959 5 0 0 0 0
-28.135048 5.7577543 2.2175784 5 0 0 0 0
-27.370777 5.7958865 2.2621741 4 0 0 0 0
-17.47858 5.8834233 2.2828245 37.727013 0 0 0 0
-13.919645 5.9241199 2.2229805 10.508032 0 0 0 0
-7.8873196 5.8192797 2.2109039 20.020901 0 0 0 0
7.3073068 5.7815962 2.1661634 32.38678 0 0 0 0
7.601099 5.7223058 2.1173048 31 0 0 0 0
13.284004 5.841012 2.1894798 47.938908 0 0 0 0
15.186789 5.732008 2.3652682 56.729473 0 0 0 0
-17.508751 6.0206928 2.2744093 12.986328 0 0 0 0
-13.90242 6.0573587 2.2316375 5.4762373 0 0 0 0
-7.9105525 6.0638528 2.1870747 1.7520142 0 0 0 0
7.2756596 6.0791683 2.1793375 12.9634 0 0 0 0
13.308626 6.1028814 2.2970142 10.163784 0 0 0 0
15.399519 7.0633211 2.2127864 13.637045 0 0 0 0
15.397401 7.3456383 2.2530332 35.285172 0 0 0 0
15.39826 7.687767 2.2379832 44.022774 0 0 0 0
15.398863 7.8966827 2.3821568 62.335869 0 0 0 0
-17.612865 8.1715727 2.3844059 3 0 0 0 0
-8.1201 8.3382549 2.2436626 1.0642395 0 0 0 0
-8.0419893 8.3433113 2.2739406 2.6137829 0 0 0 0
-7.6567326 8.2917404 2.1821711 11.031467 0 0 0 0
-7.3761144 8.2789965 2.1549635 18.885748 0 0 0 0
-7.0010176 8.2834663 2.1835103 15.955172 0 0 0 0
-6.7478175 8.2807159 2.2520549 15.735947 0 0 0 0
-6.4418154 8.299551 2.2637224 23.859913 0 0 0 0
-6.1555433 8.298378 2.2638164 24.081131 0 0 0 0
-5.8283467 8.309988 2.2131262 21.937096 0 0 0 0
-5.5921693 8.3307858 2.2490511 10.181828 0 0 0 0
15.405889 8.3167191 2.2851782 43.882786 0 0 0 0
-17.705896 8.5447159 2.364208 2 0 0 0 0
-6.3293214 8.4001064 2.374825 2 0 0 0 0
-5.7479887 8.461935 2.137012 16.292208 0 0 0 0
-5.5478067 8.4622211 2.1524107 11.381702 0 0 0 0
15.388311 8.4626961 2.2654955 40.272137 0 0 0 0
-17.705559 8.708621 2.3666523 3 0 0 0 0
-17.661091 8.8043232 2.3642473 2.875 0 0 0 0
-5.5432057 8.8149071 2.2235885 5.270968 0 0 0 0
15.41189 8.8409672 2.2900443 22.867001 0 0 0 0
-17.647257 9.2502193 2.363071 2.1875 0 0 0 0
-5.5449886 9.1862431 2.1656308 4.573554 0 0 0 0
15.404641 9.1968327 2.3238554 39.540203 0 0 0 0
-17.662952 9.360075 2.3110094 2.96875 0 0 0 0
-5.5480995 9.3756762 2.2217951 4.3238602 0 0 0 0
15.389224 9.4409389 2.2869787 33.870659 0 0 0 0
-17.727856 9.7986212 2.1995959 7 0 0 0 0
-17.647758 9.8540993 2.1947918 3 0 0 0 0
-5.5583801 9.7722082 2.2081385 4.7789421 0 0 0 0
15.395559 9.7442112 2.3279195 30.892357 0 0 0 0
-17.738966 10.155395 2.2109411 4 0 0 0 0
-17.691565 10.020585 2.3811047 7 0 0 0 0
-5.5541954 10.041497 2.1955891 3.9381814 0 0 0 0
15.411228 9.9968109 2.3339291 27.010853 0 0 0 0
-5.5443568 10.432093 2.3367782 3.3725586 0 0 0 0
15.387967 10.402283 2.3383412 29.789921 0 0 0 0
-10.992727 10.778782 2.3852224 8.5 0 0 0 0
-5.5235233 10.550528 2.3309221 2.6491137 0 0 0 0
8.1604633 10.76531 2.3927484 5 0 0 0 0
10.373698 10.778637 2.3798327 17.28125 0 0 0 0
-11.117337 11.050166 2.232332 3 0 0 0 0
-10.946156 10.92217 2.3485551 8.9445868 0 0 0 0
-10.787886 10.938762 2.3732805 6 0 0 0 0
8.0744095 10.979666 2.3871374 5.1827269 0 0 0 0
8.1457806 10.889341 2.3832099 4.5204544 0 0 0 0
10.193998 10.930656 2.3624773 38.285156 0 0 0 0
10.375239 10.898959 2.3609643 12.625802 0 0 0 0
10.515834 11.013321 2.3080587 2 0 0 0 0
-11.055597 11.145205 2.1985703 4.78125 0 0 0 0
8.046154 11.216547 2.2679441 5.3053336 0 0 0 0
8.1435356 11.237242 2.2124922 4.9411359 0 0 0 0
10.179739 11.324945 2.2277279 37.463707 0 0 0 0
10.279421 11.254278 2.171304 17.922459 0 0 0 0
10.509217 11.19976 2.2202458 2 0 0 0 0
8.0799456 11.421184 2.1320028 5.6942964 0 0 0 0
8.1640444 11.4128 2.1164157 4.3306866 0 0 0 0
10.18217 11.575329 2.3108513 43.678635 0 0 0 0
10.263405 11.454748 2.1261683 22.580675 0 0 0 0
7.9781504 11.909962 2.1937885 4.8527818 0 0 0 0
10.167639 11.853899 2.2811179 44.370186 0 0 0 0
10.205646 11.803455 2.3543262 41.75 0 0 0 0
-13.466915 12.235149 2.1450434 3 0 0 0 0
7.9860258 12.189146 2.2039003 5.2827835 0 0 0 0
8.9970465 12.152389 2.3482056 34.5 0 0 0 0
9.1575813 12.190119 2.3459492 39.676899 0 0 0 0
9.5518818 12.133172 2.3623228 42.929657 0 0 0 0
9.680481 12.221878 2.3282533 38.002525 0 0 0 0
10.111659 12.190628 2.3181117 42.995342 0 0 0 0
10.204494 12.09876 2.240392 33 0 0 0 0
12.855928 12.233074 2.1078906 3.3125 0 0 0 0
-13.506794 12.489659 2.2601252 2.75 0 0 0 0
-13.459215 12.500452 2.2311916 4.861064 0 0 0 0
7.9823217 12.443802 2.1902025 4.3773537 0 0 0 0
8.9819698 12.484365 2.1964715 44.75 0 0 0 0
9.2034016 12.444858 2.2138596 38.717541 0 0 0 0
9.522644 12.457035 2.2324882 40.894043 0 0 0 0
9.7891569 12.504686 2.1948433 35.082626 0 0 0 0
10.148466 12.437874 2.1923704 40.260719 0 0 0 0
12.862637 12.487453 2.2136359 3.2395959 0 0 0 0
12.916971 12.489923 2.2497005 2 0 0 0 0
-13.510624 12.801979 2.3987892 3 0 0 0 0
-13.428705 12.682257 2.1828568 5.2679911 0 0 0 0
7.9911628 12.717753 2.274384 4.7747622 0 0 0 0
8.9824476 12.610605 2.1018178 35 0 0 0 0
9.2248688 12.621541 2.1415994 44.96228 0 0 0 0
9.5123596 12.647539 2.129564 43.366013 0 0 0 0
9.7463217 12.663441 2.1125593 36.866318 0 0 0 0
9.9936075 12.619629 2.1301498 35.31163 0 0 0 0
12.813703 12.757668 2.2730393 5.1064963 0 0 0 0
12.911134 12.728365 2.3444681 2.625 0 0 0 0
15.411361 12.826432 2.2963915 27.966908 0 0 0 0
-13.436147 13.066086 2.2831717 4.0832934 0 0 0 0
7.9953003 13.116719 2.15558 3.5427611 0 0 0 0
12.803797 13.039959 2.1916504 4.4315605 0 0 0 0
15.265671 13.167904 2.3107116 18.022552 0 0 0 0
15.397514 13.096261 2.2660592 12.324425 0 0 0 0
-17.524883 13.481064 2.3643773 19 0 0 0 0
-14.808857 13.487764 2.388824 5 0 0 0 0
-14.592567 13.447925 2.2491498 6.25 0 0 0 0
-13.856062 13.472612 2.3408408 23.375 0 0 0 0
-13.576239 13.448902 2.1894574 12.229166 0 0 0 0
-13.444632 13.290806 2.2344484 7.0219088 0 0 0 0
7.7548709 13.450858 2.2398949 25.791666 0 0 0 0
8.0478001 13.337162 2.3363619 18.189415 0 0 0 0
12.801811 13.290001 2.1930585 3.960959 0 0 0 0
15.141633 13.23827 2.2747178 43.378975 0 0 0 0
15.330029 13.313379 2.1557264 16.25 0 0 0 0
-17.520327 13.608644 2.3015804 28.647839 0 0 0 0
-13.865512 13.637773 2.2806039 16.316406 0 0 0 0
-13.695492 13.612974 2.1914258 14.53125 0 0 0 0
-13.412098 13.559408 2.2408454 7.999898 0 0 0 0
7.3192177 13.603763 2.3304458 37.138157 0 0 0 0
7.6737552 13.540834 2.3216867 40.928925 0 0 0 0
7.9567647 13.589058 2.3364131 29.898615 0 0 0 0
12.825527 13.652546 2.2106647 11.286701 0 0 0 0
13.083354 13.672291 2.3121655 14.839752 0 0 0 0
13.25449 13.704836 2.2996318 18.570759 0 0 0 0
15.179132 13.589273 2.2594972 23.379566 0 0 0 0
-17.496017 14.021108 2.3264828 21.943979 0 0 0 0
7.2573709 14.024245 2.2949762 16.090166 0 0 0 0
12.803071 13.90542 2.2197149 4.3937478 0 0 0 0
13.149288 13.817136 2.2441473 15.8125 0 0 0 0
13.253155 13.834507 2.2628398 19 0 0 0 0
15.194539 13.893644 2.3596416 19.314013 0 0 0 0
-17.473289 14.129316 2.2925661 13.688436 0 0 0 0
-13.949934 14.243462 2.2544651 13 0 0 0 0
7.1760635 14.170607 2.1777568 5.5519934 0 0 0 0
7.2053189 14.172835 2.1820431 5.8029051 0 0 0 0
12.7813 14.160902 2.3365941 11.007328 0 0 0 0
15.149862 14.124206 2.3368134 31 0 0 0 0
15.252854 14.651817 2.3125467 10.5 0 0 0 0
-17.62989 14.71738 2.2751074 3 0 0 0 0
8.0422935 16.159592 2.3088346 4.378499 0 0 0 0
8.1110868 16.155083 2.3434961 5.71875 0 0 0 0
8.0785942 16.304274 2.2688565 3.2781448 0 0 0 0
8.1433144 16.322456 2.3319149 4.7244301 0 0 0 0
-14.239725 27.794331 2.3588848 21.234375 0 0 0 0
-14.211491 28.09581 2.343225 20 0 0 0 0
-14.411174 28.336786 2.3131516 14 0 0 0 0
-14.220326 28.386478 2.3403273 36 0 0 0 0
-14.566842 28.638412 2.3017075 17.5 0 0 0 0
-14.188311 28.59087 2.3977344 31 0 0 0 0
-14.874016 28.898304 2.3364472 24.5 0 0 0 0
-14.517118 28.926859 2.2930756 21 0 0 0 0
-14.26532 28.938087 2.3268809 26.875 0 0 0 0
-14.783974 29.349495 2.283813 18.25 0 0 0 0
-14.668777 29.204227 2.2659829 27 0 0 0 0
-14.269094 29.223312 2.3736327 31.75 0 0 0 0
-15.106272 29.534145 2.3177612 22 0 0 0 0
-14.782315 29.63229 2.2214286 12 0 0 0 0
-14.513704 29.656948 2.3007212 22.378906 0 0 0 0
-14.185358 29.561989 2.351346 31.161892 0 0 0 0
-14.081822 29.67094 2.3927267 21 0 0 0 0
-15.44758 29.948391 2.3119807 8 0 0 0 0
-15.011608 29.727093 2.2317874 9 0 0 0 0
-14.752113 29.72905 2.1718783 17.523438 0 0 0 0
-14.511583 29.751701 2.1244216 20.046875 0 0 0 0
-14.308144 29.707012 2.2028561 26.224283 0 0 0 0
-14.064358 29.780972 2.2543857 25.423843 0 0 0 0
-15.515168 30.283842 2.3048334 18 0 0 0 0
-13.957445 30.254555 2.2942457 18.773865 0 0 0 0
-13.864302 30.425093 2.2761536 11.258789 0 0 0 0
-13.77671 30.460762 2.2763574 8.90625 0 0 0 0
-15.708367 30.961382 2.2723997 14 0 0 0 0
-14.173868 31.448704 2.384248 14 0 0 0 0
-14.187155 31.679245 2.3436499 33.5 0 0 0 0
-14.178234 31.99696 2.3592005 26.488281 0 0 0 0
-4.4056396 32.099213 2.1785915 20 0 0 0 0
-14.301212 32.223175 2.3045352 25.9375 0 0 0 0
-5.1259084 32.368572 2.1806173 11 0 0 0 0
-4.9857888 32.353649 2.1576383 10 0 0 0 0
-4.2408328 32.206703 2.1437206 12 0 0 0 0
-3.9625704 32.241722 2.1170111 9 0 0 0 0
15.384443 32.347141 2.3731785 13 0 0 0 0
-14.723783 32.641563 2.2798402 19 0 0 0 0
-14.558143 32.577744 2.2633436 26 0 0 0 0
-14.255238 32.556236 2.3193054 18.9375 0 0 0 0
-14.085887 32.401112 2.3126493 24 0 0 0 0
-5.8388281 32.64325 2.3124776 11.5 0 0 0 0
-5.600419 32.657593 2.2474818 13 0 0 0 0
-5.2950497 32.451641 2.218189 15.5 0 0 0 0
-16.475601 32.862236 2.2964935 15.5 0 0 0 0
-14.174896 32.839237 2.3511231 29.5 0 0 0 0
-14.075718 32.966141 2.2282486 14 0 0 0 0
-5.4618936 32.724789 2.2204962 16 0 0 0 0
-14.919171 33.022957 2.2544215 15 0 0 0 0
-14.449954 33.134617 2.1908188 7 0 0 0 0
-14.283734 33.058777 2.3050685 28.25 0 0 0 0
-14.092885 33.244907 2.3308876 14 0 0 0 0
-14.664976 33.308971 2.2514644 15 0 0 0 0
-14.190553 33.414574 2.3591213 31.5 0 0 0 0
-14.081808 33.597187 2.2883983 15 0 0 0 0
-15.091547 33.783642 2.2857881 17 0 0 0 0
-14.86841 33.807999 2.2594922 23 0 0 0 0
-14.668685 33.712261 2.33429 14 0 0 0 0
-14.252612 33.687572 2.3544929 28.5 0 0 0 0
-14.71957 34.154381 2.259896 23 0 0 0 0
-14.415486 33.97298 2.2519803 29 0 0 0 0
-14.295336 34.036865 2.2964065 27.9375 0 0 0 0
-14.301886 34.297356 2.2729492 26.5 0 0 0 0
-15.029341 34.584839 2.20257 7 0 0 0 0
-14.151247 34.60004 2.306349 22.625 0 0 0 0
-14.347277 35.014187 2.2797861 28 0 0 0 0
-14.07223 34.861893 2.320035 10.5 0 0 0 0
-14.245722 35.24667 2.2712278 19.25 0 0 0 0
-14.096313 35.27327 2.3701684 26 0 0 0 0
-14.492732 35.516838 2.1606014 17 0 0 0 0
-14.215229 35.513916 2.3345704 25.75 0 0 0 0
8.0471344 35.659103 2.1566334 12.5 0 0 0 0
8.2696171 35.572136 2.2369027 11.03125 0 0 0 0
8.4574299 35.538116 2.1692536 9.125 0 0 0 0
-14.275216 35.885033 2.2947764 35 0 0 0 0
6.024344 35.990871 2.1163971 11 0 0 0 0
6.5346689 35.845768 2.2008281 13.895833 0 0 0 0
6.7835264 35.870132 2.1458209 11.46875 0 0 0 0
7.7078524 35.988243 2.1480799 8.5 0 0 0 0
7.9812875 35.824455 2.2223096 13.75 0 0 0 0
8.1575661 35.842754 2.2754614 16 0 0 0 0
8.5899954 35.795719 2.1314387 12.25 0 0 0 0
-14.186251 36.145573 2.3809705 27 0 0 0 0
-14.058682 36.149315 2.3294053 34 0 0 0 0
5.5750151 36.238998 2.2262042 11 0 0 0 0
5.7716494 36.164528 2.190582 14.375 0 0 0 0
6.1470799 36.103905 2.2103474 13.625 0 0 0 0
6.3937931 36.119938 2.2329657 22 0 0 0 0
6.8862782 36.075195 2.1160848 10 0 0 0 0
7.1728172 36.279808 2.3176191 11 0 0 0 0
7.4420586 36.11401 2.1991279 11.052083 0 0 0 0
7.5718985 36.057888 2.2785268 11.411621 0 0 0 0
8.1442862 36.158714 2.3787186 17 0 0 0 0
-14.27524 36.446472 2.2907972 24 0 0 0 0
6.7657843 36.51667 2.3783371 12 0 0 0 0
7.1804218 36.404598 2.2407384 11 0 0 0 0
8.6192608 36.475574 2.3842447 13 0 0 0 0
9.2242527 36.384201 2.1982512 12.554688 0 0 0 0
9.4197435 36.34211 2.2204247 13.89095 0 0 0 0
9.671545 36.39135 2.269907 15.5 0 0 0 0
10.065981 36.555382 2.1549678 14 0 0 0 0
9.3669748 36.611897 2.3670886 13 0 0 0 0
-14.228838 37.117695 2.3568215 29 0 0 0 0
-14.783932 37.667145 2.332593 13 0 0 0 0
-14.697131 37.786743 2.18238 24 0 0 0 0
-14.291395 37.68264 2.2778029 24.5 0 0 0 0
-15.018122 37.804951 2.1819189 9 0 0 0 0
-14.056623 37.853523 2.3164577 19.5 0 0 0 0
-13.793512 38.025272 2.105056 12 0 0 0 0
15.358397 -6.334003 2.5290489 1.75 0 0 0 0
-17.492458 -6.0836616 2.5938935 9.40625 0 0 0 0
-17.169334 -6.069705 2.6157937 11.474609 0 0 0 0
-16.934914 -6.0963755 2.4519773 10.910614 0 0 0 0
-16.582397 -6.0673676 2.5114169 9.9101562 0 0 0 0
-16.331591 -6.0720158 2.5895386 12.283218 0 0 0 0
-16.030949 -6.0662184 2.5182147 9.3885498 0 0 0 0
-15.830725 -6.0751824 2.5691843 12.019423 0 0 0 0
-13.854829 -6.0170479 2.4833987 29.708334 0 0 0 0
-13.726717 -6.0365763 2.5298412 20.979431 0 0 0 0
-13.39497 -6.0723267 2.511059 11.833989 0 0 0 0
-13.027927 -6.07584 2.6056519 13.946674 0 0 0 0
-12.759042 -6.0741892 2.4878573 15.986567 0 0 0 0
-12.482426 -6.0728135 2.4270129 13.689859 0 0 0 0
-12.254715 -6.069418 2.5070114 12.737022 0 0 0 0
-11.92931 -6.0760946 2.5072451 19.942465 0 0 0 0
-11.613896 -6.0666695 2.5603025 17.773045 0 0 0 0
-11.291415 -6.067687 2.429693 18.105034 0 0 0 0
-10.934301 -6.0530663 2.538837 24.64328 0 0 0 0
-10.659054 -6.0584283 2.5685101 19.726383 0 0 0 0
-10.29327 -6.057992 2.5322633 20.5 0 0 0 0
-9.9947586 -6.0636377 2.5653057 24.166668 0 0 0 0
7.3208127 -6.02702 2.5575073 31.142105 0 0 0 0
15.233581 -6.0545626 2.4676695 26.904583 0 0 0 0
15.328655 -6.2507844 2.5241132 4.015182 0 0 0 0
23.692451 -6.0370665 2.6788819 3 0 0 0 0
23.931147 -6.0370464 2.53491 7.0721092 0 0 0 0
24.053074 -6.0210447 2.6058631 11.054445 0 0 0 0
24.337658 -6.0254154 2.6192789 9.7321777 0 0 0 0
24.762856 -6.0288982 2.5965862 9.2775955 0 0 0 0
25.045156 -6.0245194 2.5213923 9.0530472 0 0 0 0
25.255165 -6.0217376 2.4950068 8.8819027 0 0 0 0
25.684689 -6.0238132 2.5194287 8.8659515 0 0 0 0
26.012184 -6.0204163 2.5139265 8.4953613 0 0 0 0
26.176441 -6.0230303 2.5463409 9.0677204 0 0 0 0
26.56662 -6.0187263 2.4596152 9.604248 0 0 0 0
26.846439 -6.0302553 2.6186826 9.2068329 0 0 0 0
27.135431 -6.0189137 2.473876 9.7148438 0 0 0 0
27.483231 -6.0169172 2.5009198 9.7636719 0 0 0 0
27.796162 -6.0208082 2.4634767 8.8449059 0 0 0 0
28.099825 -6.0266495 2.554153 10.070312 0 0 0 0
28.300154 -6.0201244 2.5403571 11.453003 0 0 0 0
28.706398 -6.0172172 2.647716 8.765625 0 0 0 0
28.964546 -6.0432539 2.6172373 9.6552734 0 0 0 0
29.299797 -6.0234704 2.4963465 10.125 0 0 0 0
29.48069 -6.0476913 2.4906659 8.8554688 0 0 0 0
29.835133 -6.0354958 2.5408874 8.9375 0 0 0 0
30.20138 -6.0099382 2.6072571 9.96875 0 0 0 0
30.434757 -6.0126781 2.4902415 10.96875 0 0 0 0
30.724104 -6.0310607 2.5483646 10.333333 0 0 0 0
31.331011 -6.01226 2.5869641 11 0 0 0 0
-14.165051 -5.7264791 2.6334457 2.0703125 0 0 0 0
-14.062689 -5.7806153 2.5991499 3.9770508 0 0 0 0
-8.3487959 -5.7824888 2.6366689 16 0 0 0 0
-7.9547877 -5.7729878 2.594069 18.5 0 0 0 0
7.4021659 -5.7475948 2.6269379 37.771675 0 0 0 0
15.25971 -5.7729621 2.4870105 42.003498 0 0 0 0
15.314152 -5.7194595 2.5604057 32.975182 0 0 0 0
21.89633 -5.7459526 2.6774998 22 0 0 0 0
21.983307 -5.7168598 2.4829974 16.373442 0 0 0 0
23.886734 -5.9944601 2.6843033 9 0 0 0 0
24.08478 -5.9957609 2.5662761 10.75 0 0 0 0
24.454473 -5.9869118 2.5197067 8.7089844 0 0 0 0
24.809963 -5.9541817 2.5793521 8.5625 0 0 0 0
24.975826 -5.9826651 2.5762186 8.213542 0 0 0 0
25.413818 -5.9677124 2.5411501 11.015625 0 0 0 0
25.724745 -5.9719801 2.5059171 8.614584 0 0 0 0
25.890045 -5.9507599 2.6314902 9.4921875 0 0 0 0
26.198673 -5.9649887 2.5267158 9 0 0 0 0
26.568108 -5.9842248 2.5984716 11.28125 0 0 0 0
26.857323 -5.9742289 2.6121807 8.25 0 0 0 0
27.097696 -5.9824562 2.5728672 9.625 0 0 0 0
27.561008 -5.9558163 2.6225567 9.2421875 0 0 0 0
27.855396 -5.9632792 2.6638312 10 0 0 0 0
28.04998 -5.9670415 2.5870943 9.9375 0 0 0 0
28.311893 -5.9912882 2.605711 9.625 0 0 0 0
28.648628 -5.9896579 2.6515918 10.5 0 0 0 0
28.918713 -5.9771094 2.5786781 8.2714844 0 0 0 0
29.219614 -5.977879 2.4682784 10.5 0 0 0 0
29.509447 -5.9887037 2.5309546 9 0 0 0 0
29.759159 -5.9873252 2.5988078 10 0 0 0 0
30.05801 -5.9871254 2.5826445 10.9375 0 0 0 0
30.442371 -5.9564123 2.536782 12.25 0 0 0 0
30.788733 -5.9955316 2.5993478 11 0 0 0 0
31.117437 -5.9956336 2.6828437 9 0 0 0 0
31.244282 -5.9956527 2.430742 9 0 0 0 0
-8.1362915 -5.6759696 2.6014793 26 0 0 0 0
7.4660039 -5.6881275 2.6016583 37.478951 0 0 0 0
7.6277595 -5.6197071 2.5762625 28.730797 0 0 0 0
7.8020234 -5.6220479 2.4870796 2 0 0 0 0
15.282379 -5.6903648 2.521256 39.166668 0 0 0 0
15.368992 -5.6788778 2.5336835 33.863117 0 0 0 0
22.077362 -5.6729922 2.5071898 6.7356215 0 0 0 0
-7.9921803 -2.7010715 2.499939 2 0 0 0 0
15.594946 -2.8267794 2.577831 54.875 0 0 0 0
15.641492 -2.8174758 2.6097527 47.335655 0 0 0 0
-7.8874755 -2.4789925 2.4524064 16.769228 0 0 0 0
7.3788395 -2.5486274 2.6087122 22.510359 0 0 0 0
7.5007567 -2.6429279 2.4363089 4 0 0 0 0
15.397309 -2.6097445 2.5049195 26.644531 0 0 0 0
15.707396 -2.5914979 2.5155387 43 0 0 0 0
20.598228 -2.5815873 2.6408074 3 0 0 0 0
21.842846 -2.5422316 2.5544701 22.837646 0 0 0 0
-8.1243124 -2.137836 2.6782455 8.666667 0 0 0 0
-7.8782516 -2.3229949 2.5990224 27.748981 0 0 0 0
-0.53086293 -2.1539621 2.5233932 15.623975 0 0 0 0
-0.084357686 -2.1416194 2.5386169 17.125484 0 0 0 0
0.045854349 -2.2606246 2.4816628 6.8673921 0 0 0 0
7.3704524 -2.2039557 2.5830607 31.954388 0 0 0 0
15.247115 -2.1075501 2.6486473 52.366089 0 0 0 0
15.395764 -2.2164004 2.6337733 29.4375 0 0 0 0
15.609402 -2.395653 2.5382617 54 0 0 0 0
16.402029 -2.1179523 2.5835984 5 0 0 0 0
16.668785 -2.1223645 2.5862904 3.75 0 0 0 0
16.999037 -2.1128073 2.5843472 3 0 0 0 0
17.504692 -2.1168823 2.56744 4.5 0 0 0 0
17.960199 -2.1216607 2.5658998 4.5 0 0 0 0
18.121603 -2.1573815 2.5754232 3.375 0 0 0 0
18.419586 -2.1925859 2.5511842 3.5625 0 0 0 0
18.619226 -2.1613011 2.5609877 3 0 0 0 0
19.731739 -2.1295228 2.5603747 3.921875 0 0 0 0
19.976135 -2.2064443 2.5156746 3.3684895 0 0 0 0
20.167889 -2.2073801 2.5377197 4.2890625 0 0 0 0
20.510529 -2.1926181 2.5429666 4.5 0 0 0 0
20.885353 -2.2323828 2.5408607 4 0 0 0 0
21.041206 -2.2113569 2.5467849 3.5 0 0 0 0
21.830853 -2.2246811 2.4793954 39.493851 0 0 0 0
-8.1740866 -2.056519 2.5610943 10.5 0 0 0 0
-8.0860634 -2.0670786 2.6107314 20.65625 0 0 0 0
-0.400971 -2.0533466 2.5253429 16.845409 0 0 0 0
-0.19789968 -2.029676 2.5085914 16.611399 0 0 0 0
7.468852 -2.0683563 2.5941708 26.574516 0 0 0 0
7.5772028 -2.0294354 2.6162188 20.932669 0 0 0 0
15.267782 -2.0735149 2.605803 28.842947 0 0 0 0
15.517669 -1.9979798 2.6288762 41.563034 0 0 0 0
15.731865 -1.9378929 2.580919 20.950155 0 0 0 0
16.14352 -1.9333184 2.5660019 6.5980239 0 0 0 0
16.395624 -1.9665015 2.5720057 5.7712893 0 0 0 0
16.664547 -2.0007586 2.5831358 5.1856599 0 0 0 0
16.982868 -1.9151194 2.5729852 5.4208193 0 0 0 0
17.292118 -1.9152241 2.5535443 5.9528751 0 0 0 0
17.483498 -1.9189715 2.5523477 4.1994476 0 0 0 0
17.874771 -1.9405192 2.5690873 5.3343992 0 0 0 0
18.121887 -1.9455507 2.5617049 4.4730926 0 0 0 0
18.500359 -1.9576526 2.5751712 4.4024353 0 0 0 0
18.767159 -1.825791 2.5820155 3 0 0 0 0
19.745617 -1.9968584 2.5519311 3.75 0 0 0 0
19.977196 -1.9707537 2.5303941 3.5118103 0 0 0 0
20.314142 -1.9200878 2.5259099 5.47229 0 0 0 0
20.540497 -2.0000269 2.5502362 3.7975261 0 0 0 0
20.860107 -1.894978 2.5443368 5.25 0 0 0 0
21.121243 -1.9200463 2.5254884 3.296875 0 0 0 0
21.44339 -1.8071015 2.5843341 2 0 0 0 0
21.828781 -2.0581388 2.5328891 24.43726 0 0 0 0
21.961618 -1.9924397 2.5012765 6.5625 0 0 0 0
22.389267 -2.0396922 2.4908261 8.25 0 0 0 0
22.710808 -1.9186268 2.479898 46.355309 0 0 0 0
15.569477 -1.6390285 2.6146569 61.146915 0 0 0 0
15.756857 -1.633003 2.5573537 21.308039 0 0 0 0
16.025883 -1.667978 2.5453253 7.1086426 0 0 0 0
16.274261 -1.7155631 2.5817337 7.9115601 0 0 0 0
16.704601 -1.7123426 2.5855863 5.7629547 0 0 0 0
16.952312 -1.7069191 2.6068738 5.4739032 0 0 0 0
17.220657 -1.6742325 2.6584778 4.2453308 0 0 0 0
17.554207 -1.5796845 2.6387043 4.7382784 0 0 0 0
17.889149 -1.6223178 2.6540132 4.5579343 0 0 0 0
18.174906 -1.6745995 2.6185942 4.1629829 0 0 0 0
18.466412 -1.7090669 2.5939145 4.6605115 0 0 0 0
18.763325 -1.6423807 2.6536903 4.8554573 0 0 0 0
18.998196 -1.6172519 2.6504281 3.4140625 0 0 0 0
19.267969 -1.5981323 2.642015 3 0 0 0 0
19.724464 -1.7495286 2.5406229 3.625 0 0 0 0
20.009422 -1.7471149 2.5280814 4.1328125 0 0 0 0
20.274406 -1.6950206 2.6143615 3.8242188 0 0 0 0
20.602901 -1.6848792 2.5505512 4.5211182 0 0 0 0
20.867706 -1.6208196 2.6357388 4.6196442 0 0 0 0
21.233912 -1.6772063 2.5947413 4.8984375 0 0 0 0
21.476307 -1.6941216 2.5828636 4.5 0 0 0 0
21.769409 -1.6929896 2.5758071 4.234375 0 0 0 0
22.031603 -1.6279649 2.6125906 4.125 0 0 0 0
22.470936 -1.7042218 2.624579 6 0 0 0 0
22.713631 -1.6508379 2.4711418 46.125938 0 0 0 0
15.588761 -1.2473764 2.6339893 57.971123 0 0 0 0
15.675549 -1.3947095 2.5610642 22.48469 0 0 0 0
16.075493 -1.425627 2.5278318 2.9562397 0 0 0 0
16.236519 -1.2610321 2.5196755 2 0 0 0 0
17.267632 -1.3221374 2.6619301 2.9682806 0 0 0 0
17.528992 -1.2859221 2.6653483 3.8574967 0 0 0 0
17.893518 -1.3843408 2.6542177 2.5273438 0 0 0 0
18.210201 -1.3447703 2.6512437 2.7038269 0 0 0 0
18.445477 -1.2953616 2.6765814 2.8001747 0 0 0 0
18.751652 -1.3852123 2.6672459 3.1470947 0 0 0 0
19.059708 -1.3435591 2.6580405 3 0 0 0 0
21.164068 -1.4468489 2.6387429 3 0 0 0 0
21.48418 -1.3157219 2.6519444 3.375 0 0 0 0
21.858551 -1.4491804 2.6788211 3.5 0 0 0 0
22.021088 -1.2769077 2.6586943 2.5 0 0 0 0
22.717527 -1.3722475 2.6046472 38.634319 0 0 0 0
-30.96405 -0.99510783 2.569313 24.25 0 0 0 0
15.570419 -1.1081984 2.6028333 58.890965 0 0 0 0
15.803233 -1.1778837 2.5308619 14.131958 0 0 0 0
16.055435 -1.1047621 2.5299692 2.4368892 0 0 0 0
16.309103 -1.0785947 2.5271518 2.5 0 0 0 0
17.068848 -1.1258914 2.652916 2.75 0 0 0 0
17.253777 -1.0734705 2.6682508 2.7722585 0 0 0 0
17.475456 -1.1219777 2.6537557 3.4807415 0 0 0 0
17.891968 -1.1401043 2.6592224 3.8564148 0 0 0 0
18.159351 -1.0481882 2.6490335 3.4735107 0 0 0 0
18.50547 -1.109181 2.6328328 3.0019531 0 0 0 0
18.68644 -1.1124635 2.6495488 2.8167114 0 0 0 0
19.126804 -1.0769471 2.6776972 2.5 0 0 0 0
21.04351 -1.0924026 2.5982463 4 0 0 0 0
21.306742 -1.1031717 2.6584949 4 0 0 0 0
21.839298 -1.1856487 2.5738871 3.25 0 0 0 0
22.709921 -1.0494173 2.6123168 40.455444 0 0 0 0
-30.959986 -0.79093337 2.5229318 23.859375 0 0 0 0
15.571892 -0.7456727 2.6228032 69.903122 0 0 0 0
15.755657 -0.70675302 2.5414841 19.547705 0 0 0 0
16.098457 -0.73209965 2.5208406 2.3484669 0 0 0 0
16.224964 -0.74338984 2.5230319 2 0 0 0 0
17.038054 -0.69075209 2.6407619 3 0 0 0 0
17.29213 -0.75010598 2.6504807 2.9936614 0 0 0 0
17.506565 -0.80740088 2.6394157 3.4123096 0 0 0 0
17.822479 -0.69928527 2.6390488 2.3866863 0 0 0 0
18.155437 -0.7506206 2.6642904 3.4449127 0 0 0 0
18.474808 -0.79211009 2.6484234 3.9280853 0 0 0 0
18.690277 -0.7278114 2.6514387 4.296875 0 0 0 0
18.996635 -0.76771599 2.6403236 2.5 0 0 0 0
19.251562 -0.87910694 2.6871488 4 0 0 0 0
21.098042 -0.70529902 2.6194577 4 0 0 0 0
22.72361 -0.81718695 2.6200058 27.693222 0 0 0 0
-30.974501 -0.4214789 2.5508885 18.339018 0 0 0 0
-17.404236 -0.37433195 2.4618862 73 0 0 0 0
-17.375698 -0.42321253 2.4958477 64.75 0 0 0 0
15.244374 -0.40044832 2.4307325 13.106256 0 0 0 0
15.550159 -0.53232682 2.6154418 46.344589 0 0 0 0
15.68429 -0.57244384 2.5619378 25.367188 0 0 0 0
16.078739 -0.54309106 2.5072885 2.34375 0 0 0 0
17.252892 -0.56085455 2.6623175 3.125 0 0 0 0
17.573818 -0.58246332 2.6511612 3.828125 0 0 0 0
17.962965 -0.57733363 2.633177 4 0 0 0 0
18.312372 -0.58463281 2.6554754 4 0 0 0 0
18.700012 -0.58327615 2.6762202 4 0 0 0 0
-30.971582 -0.050540537 2.5325923 26.625 0 0 0 0
-17.413645 -0.012267739 2.6206853 112 0 0 0 0
-17.373505 -0.14510339 2.4317021 85 0 0 0 0
15.199638 -0.14748576 2.4954004 60.821243 0 0 0 0
15.315109 -0.26419944 2.5441189 56.114582 0 0 0 0
-30.98571 0.25090373 2.557188 25.171387 0 0 0 0
-17.419163 0.11754193 2.505702 102.86328 0 0 0 0
-17.383377 0.26419902 2.4570222 82.09375 0 0 0 0
15.207877 0.26069373 2.5017762 55.248627 0 0 0 0
-30.981339 0.42370656 2.4704084 19.70207 0 0 0 0
-17.417269 0.44223499 2.4403429 81.416672 0 0 0 0
-17.36799 0.4436475 2.6007333 74.585289 0 0 0 0
15.200296 0.35957539 2.5151424 57.479195 0 0 0 0
-30.97039 0.77690506 2.594604 22.055695 0 0 0 0
-17.41621 0.65030563 2.4574642 91.25621 0 0 0 0
-17.391003 0.76476586 2.4734602 83.225372 0 0 0 0
15.205742 0.85258949 2.487977 56.570919 0 0 0 0
-30.997658 1.0911968 2.4899695 16.321371 0 0 0 0
-17.41967 1.0535672 2.4671535 85.537964 0 0 0 0
-17.38142 1.1689509 2.4777453 70.352997 0 0 0 0
-4.1182003 1.0623375 2.4615073 3.7927575 0 0 0 0
15.190854 0.92122531 2.4423499 62.477673 0 0 0 0
-30.98481 1.394963 2.5689573 23.097794 0 0 0 0
-17.414158 1.4066267 2.4278913 73.859222 0 0 0 0
-17.371529 1.3572314 2.5618665 52.086327 0 0 0 0
-4.1217241 1.2581072 2.5459821 12.820913 0 0 0 0
15.206421 1.3557875 2.4483883 55.278358 0 0 0 0
-30.978104 1.5599575 2.5593293 18.369543 0 0 0 0
-17.419083 1.6680834 2.4574599 99.138054 0 0 0 0
-17.373835 1.5828636 2.51069 61.250031 0 0 0 0
-4.1190619 1.5581915 2.5608735 8.306325 0 0 0 0
15.204233 1.7219076 2.4542272 57.226562 0 0 0 0
-30.963783 1.9655681 2.5206468 21.423119 0 0 0 0
-17.418657 2.0607865 2.4926689 82.823654 0 0 0 0
-17.388239 2.0517564 2.5560069 80.765289 0 0 0 0
-4.1143909 1.9038609 2.5793095 5.9709764 0 0 0 0
15.203062 1.8760555 2.4465473 55.32494 0 0 0 0
-30.987646 2.2091918 2.5357652 18.073669 0 0 0 0
-17.420246 2.2150526 2.4530492 87.727646 0 0 0 0
-17.388718 2.1885858 2.5680275 79.742538 0 0 0 0
-4.131577 2.2509613 2.5440526 7.1848855 0 0 0 0
15.214135 2.3080788 2.5021591 54.643993 0 0 0 0
15.331501 2.3220501 2.469872 34 0 0 0 0
-30.97401 2.5683696 2.5852437 17.9687 0 0 0 0
-17.427055 2.6483285 2.4743023 101.19376 0 0 0 0
-17.38731 2.6417954 2.5567694 72.75 0 0 0 0
-4.1318798 2.6140864 2.5511503 13.93704 0 0 0 0
15.202958 2.4294791 2.5283656 35.777946 0 0 0 0
15.448011 2.5737545 2.4901462 13.476067 0 0 0 0
-30.988638 2.8139417 2.5853643 19.801588 0 0 0 0
-30.80884 2.7039194 2.5903618 22.5 0 0 0 0
-17.418079 2.7166176 2.4967391 97.401497 0 0 0 0
-17.386415 2.7783816 2.4774799 74.544678 0 0 0 0
-4.1497798 2.7345519 2.5507445 0.9375 0 0 0 0
15.50208 2.8825951 2.5095692 7.8753366 0 0 0 0
15.604145 2.9403882 2.5046797 9 0 0 0 0
-30.976601 3.0999682 2.505692 21.03018 0 0 0 0
-17.420147 3.1653113 2.4625192 83.555038 0 0 0 0
-17.376823 3.2014012 2.533277 57.571918 0 0 0 0
15.456408 3.2584321 2.4978228 6.8685608 0 0 0 0
15.616462 3.245266 2.4920874 6.5 0 0 0 0
-30.991413 3.458909 2.5375814 18.719755 0 0 0 0
-30.798929 3.4075389 2.5870991 17.5 0 0 0 0
-17.426296 3.3941035 2.5135503 90.547462 0 0 0 0
-17.390285 3.5662947 2.4956961 62.929688 0 0 0 0
15.496251 3.352448 2.5283039 7.8719554 0 0 0 0
-30.956657 3.7106643 2.5215325 24.999493 0 0 0 0
-17.412674 3.6939209 2.47153 79.783455 0 0 0 0
-17.380098 3.7112775 2.5070796 58.207787 0 0 0 0
15.432613 3.8188758 2.4992127 4.1187081 0 0 0 0
-30.974895 4.0112939 2.5653577 20.020424 0 0 0 0
-30.856691 4.117281 2.590327 17.5 0 0 0 0
-17.432785 4.1612191 2.5007563 98.852463 0 0 0 0
-17.382 4.039257 2.4924622 62.580994 0 0 0 0
15.499216 4.0111051 2.5377884 7.1473818 0 0 0 0
-30.967213 4.2865891 2.5804868 20.566265 0 0 0 0
-30.884562 4.3383136 2.5671632 20 0 0 0 0
-17.43755 4.2653933 2.4612763 100.07668 0 0 0 0
15.490582 4.3723946 2.5355384 7.471302 0 0 0 0
-30.971128 4.7032542 2.4918962 26.258951 0 0 0 0
-30.860771 4.6681514 2.6175125 15 0 0 0 0
-17.46439 4.6165829 2.459065 53.925751 0 0 0 0
15.541231 4.674933 2.4829183 7.5182705 0 0 0 0
15.601254 4.5948539 2.5463572 15 0 0 0 0
-30.954418 4.9100027 2.5095017 17.842657 0 0 0 0
-30.776144 4.8831072 2.6090591 16.5 0 0 0 0
-30.483549 4.9929409 2.5541101 15.866455 0 0 0 0
-17.453365 5.0218654 2.5424302 61.209522 0 0 0 0
15.239369 5.0406871 2.4786568 40.085167 0 0 0 0
15.555885 4.8630199 2.5552034 9.6714869 0 0 0 0
15.615206 4.9005575 2.4753971 5.625 0 0 0 0
-30.487373 5.3187513 2.4428184 16.101807 0 0 0 0
-17.469311 5.1400294 2.4643388 58.387039 0 0 0 0
-17.246288 5.385119 2.6797616 24 0 0 0 0
-16.882875 5.3736286 2.6661978 13.671875 0 0 0 0
-16.692503 5.3840389 2.6006799 7.9785156 0 0 0 0
-16.371555 5.3896313 2.597383 7.9261069 0 0 0 0
-16.042274 5.3844719 2.6425457 9.9299316 0 0 0 0
-15.748766 5.374402 2.6403341 12.639648 0 0 0 0
-15.448998 5.3689508 2.6848688 17.658096 0 0 0 0
-15.151526 5.3787017 2.6778934 24.407227 0 0 0 0
-14.795456 5.376318 2.493855 5.4104872 0 0 0 0
-14.544805 5.3739305 2.5362465 15.205195 0 0 0 0
-14.267143 5.3616347 2.5363793 16.121815 0 0 0 0
-13.906692 5.374661 2.586411 34.268963 0 0 0 0
-8.4754581 5.3799362 2.6443172 7.8242807 0 0 0 0
-8.1916065 5.384809 2.5546992 9.60886 0 0 0 0
-8.0740786 5.3988624 2.4744759 11.5 0 0 0 0
7.910964 5.3990116 2.5601826 15.5 0 0 0 0
13.922543 5.392045 2.4939399 5.6171875 0 0 0 0
15.1943 5.3179483 2.4764996 66.912193 0 0 0 0
15.334254 5.2659168 2.4646926 36.117188 0 0 0 0
-30.473783 5.6755619 2.6118951 20.625 0 0 0 0
-17.46114 5.5831537 2.4609969 71.408981 0 0 0 0
-17.310246 5.4839911 2.6395838 23.078125 0 0 0 0
-16.899635 5.4269323 2.6358685 12.173584 0 0 0 0
-16.638157 5.462604 2.6120892 10.174232 0 0 0 0
-16.350025 5.5089369 2.6006348 7.7728696 0 0 0 0
-16.02055 5.502697 2.6279829 8.2908955 0 0 0 0
-15.808619 5.4752216 2.6298811 8.4501076 0 0 0 0
-15.411974 5.4991112 2.5877452 6.340332 0 0 0 0
-15.156141 5.422791 2.5993724 9.5527344 0 0 0 0
-14.893219 5.4133778 2.5988026 15.265625 0 0 0 0
-14.66884 5.4096212 2.536443 14.265625 0 0 0 0
-13.895006 5.4915762 2.4564085 34.330273 0 0 0 0
-8.4449158 5.4320002 2.4994812 2.8333335 0 0 0 0
-8.2145481 5.450902 2.6021709 9.171051 0 0 0 0
-7.8950768 5.6426954 2.5026102 15.51335 0 0 0 0
-0.6075967 5.4278231 2.5129294 13.47876 0 0 0 0
-0.57056761 5.4300828 2.6228313 24.227179 0 0 0 0
-0.25207639 5.4293346 2.6123271 32.318169 0 0 0 0
0.074586712 5.5321732 2.5325794 20.447014 0 0 0 0
7.369566 5.4725733 2.6144638 32.169235 0 0 0 0
7.7389712 5.4487138 2.545258 28.238605 0 0 0 0
7.8199902 5.4437132 2.6139343 27.233286 0 0 0 0
13.305907 5.5120687 2.5121512 43.030495 0 0 0 0
13.596672 5.4348793 2.4939799 24.442291 0 0 0 0
13.945148 5.4531918 2.5411253 6.8791399 0 0 0 0
