# .PCD v0.7 - Point Cloud Data file format
VERSION 0.7
FIELDS x y z intensity normal_x normal_y normal_z curvature
SIZE 4 4 4 4 4 4 4 4
TYPE F F F F F F F F
COUNT 1 1 1 1 1 1 1 1
WIDTH 1036
HEIGHT 1
VIEWPOINT 0 0 0 1 0 0 0
POINTS 1036
DATA ascii
10.009473 38.565449 4.1976385 12 0 0 0 0
-10.037401 -8.4085093 4.2424607 5 0 0 0 0
-9.6536264 -8.4012671 4.2770615 8 0 0 0 0
-9.5338192 -8.4293547 4.2277994 2 0 0 0 0
-3.6236703 -8.4088535 4.2629204 1 0 0 0 0
-3.5176356 -8.448184 4.2882771 1 0 0 0 0
-3.0091312 -8.4111843 4.2407875 1 0 0 0 0
-2.9330156 -8.4219151 4.2547379 1 0 0 0 0
0.88564897 -8.4206648 4.2654643 0 0 0 0 0
2.1510372 -8.4101458 4.26756 1 0 0 0 0
2.5888007 -8.4914341 4.21561 11 0 0 0 0
3.1277857 -8.4271917 4.2342882 35.5 0 0 0 0
4.3325219 -8.5504637 4.2158442 16 0 0 0 0
4.7279773 -8.4853868 4.2406693 38.5 0 0 0 0
7.6400762 -8.4091063 4.2026501 2 0 0 0 0
9.1440086 -8.5230436 4.2060952 35 0 0 0 0
-10.390571 -8.38906 4.2532301 9.5 0 0 0 0
-10.066817 -8.3424759 4.2731152 15.75 0 0 0 0
-9.5917215 -8.3747025 4.2774229 16 0 0 0 0
-4.1236234 -8.2149601 4.2583675 11 0 0 0 0
-3.6481216 -8.2285805 4.340024 1.7441406 0 0 0 0
-3.4890871 -8.2310572 4.2773409 2.8638504 0 0 0 0
-3.0804119 -8.2228451 4.2624116 14.6875 0 0 0 0
-2.8911827 -8.1952715 4.2910309 6.0027237 0 0 0 0
-2.4825265 -8.2586908 4.2875972 10.377613 0 0 0 0
-2.3273191 -8.2395296 4.2743988 29.233742 0 0 0 0
0.51152384 -8.204752 4.2570724 32.057945 0 0 0 0
0.77470052 -8.1993008 4.259182 34.972633 0 0 0 0
0.97532099 -8.2060738 4.2550745 28.786884 0 0 0 0
1.299962 -8.2119312 4.2584105 35.947578 0 0 0 0
1.7738701 -8.2404518 4.2499313 32.83036 0 0 0 0
1.8583093 -8.2146225 4.2580786 36.108414 0 0 0 0
2.2748318 -8.1647224 4.2579327 39.727947 0 0 0 0
2.4721828 -8.2488861 4.2336226 26.942497 0 0 0 0
2.8530149 -8.2454004 4.2385511 26.039007 0 0 0 0
3.1934462 -8.1813784 4.2476177 35.980324 0 0 0 0
3.3778186 -8.2867908 4.2223678 20.741957 0 0 0 0
3.802918 -8.2261295 4.2448683 37.776409 0 0 0 0
4.1401539 -8.1693525 4.249783 35.625275 0 0 0 0
4.2568722 -8.1823769 4.2419305 40.455891 0 0 0 0
4.6865563 -8.2118549 4.2334671 34.063457 0 0 0 0
4.9010439 -8.2501125 4.2232761 21.574966 0 0 0 0
5.2255712 -8.1787395 4.241497 37.244141 0 0 0 0
5.5105004 -8.1893282 4.2268901 37.122654 0 0 0 0
5.7891493 -8.2115097 4.2277713 34.693676 0 0 0 0
6.1763487 -8.1759682 4.2392445 41.483887 0 0 0 0
6.4428458 -8.1816654 4.2281389 36.939922 0 0 0 0
6.8332863 -8.1970844 4.2282805 34.268974 0 0 0 0
7.005681 -8.2345448 4.2226505 26.577282 0 0 0 0
7.3276358 -8.2104492 4.2275262 25.871128 0 0 0 0
7.7008667 -8.1974392 4.2162151 28.985016 0 0 0 0
7.8912096 -8.203825 4.2215891 28.42066 0 0 0 0
8.2723598 -8.1662788 4.2202435 34.392029 0 0 0 0
8.6079273 -8.1623688 4.2178707 36.68531 0 0 0 0
8.7747059 -8.1744938 4.2186475 32.978207 0 0 0 0
9.1713829 -8.1538715 4.2156019 39.549286 0 0 0 0
9.4175215 -8.232955 4.2071791 20.340645 0 0 0 0
9.7021332 -8.143795 4.2140703 35.948875 0 0 0 0
11.603012 -8.1504622 4.2116919 24.46875 0 0 0 0
11.850204 -8.1414156 4.2097464 27.5 0 0 0 0
12.001268 -8.1476631 4.2027316 38 0 0 0 0
12.349255 -8.1465912 4.2059073 13 0 0 0 0
12.874169 -8.1738815 4.2029705 11 0 0 0 0
12.909735 -8.1669207 4.2054057 21 0 0 0 0
13.216712 -8.1657143 4.204215 15.5 0 0 0 0
13.512663 -8.1243725 4.2043538 20 0 0 0 0
1.2747682 -8.0983286 4.2788558 34.875 0 0 0 0
1.8552716 -8.0946178 4.289947 39 0 0 0 0
2.2730737 -8.0933781 4.2857571 41.15625 0 0 0 0
2.5929689 -8.0905657 4.2786784 39 0 0 0 0
2.8030019 -8.0827999 4.2833204 36.566406 0 0 0 0
3.1551778 -8.08848 4.2665992 39 0 0 0 0
3.4566176 -8.0914288 4.2493925 40 0 0 0 0
3.73037 -8.0939264 4.26091 38 0 0 0 0
4.1541824 -8.0977583 4.267837 38.5 0 0 0 0
4.5640173 -8.0998602 4.2510672 39 0 0 0 0
6.2376776 -8.086997 4.2412291 43 0 0 0 0
8.3530293 -8.0792608 4.2185292 41 0 0 0 0
8.6184502 -8.0527191 4.2081299 37 0 0 0 0
8.7381401 -8.0796061 4.2291136 40 0 0 0 0
9.2617674 -8.0970945 4.2107673 47 0 0 0 0
9.5049438 -8.0823851 4.2271547 44 0 0 0 0
9.648016 -8.0631523 4.2373934 44.332031 0 0 0 0
2.5759273 -7.5949383 4.4965649 23 0 0 0 0
2.7295952 -7.6593194 4.4924178 24.5 0 0 0 0
3.2202992 -7.6921988 4.4823303 9.75 0 0 0 0
-2.5511675 -7.2354703 4.4775558 19.75 0 0 0 0
0.94268245 -7.4668536 4.4882779 17 0 0 0 0
1.7401501 -7.2172127 4.4466791 24 0 0 0 0
2.1201937 -7.4654036 4.4956183 25.875 0 0 0 0
2.4592857 -7.3673534 4.4883699 23.9375 0 0 0 0
2.70105 -7.2672896 4.4956145 23 0 0 0 0
-2.1407065 -6.0117874 4.325985 10.050781 0 0 0 0
-1.8821748 -6.0040321 4.315794 26.111429 0 0 0 0
-1.5747874 -6.0026283 4.4237304 33.940796 0 0 0 0
0.11524502 -6.0480108 4.2354226 36.599998 0 0 0 0
2.6406963 -6.1749997 4.2495875 34 0 0 0 0
-3.0374665 -5.9718027 4.4983425 32 0 0 0 0
-2.1345325 -5.9944487 4.3388634 23.75 0 0 0 0
-1.9700605 -5.995163 4.4261742 30.195255 0 0 0 0
-1.6734043 -5.9843693 4.3303266 19.415138 0 0 0 0
-1.4210484 -5.9867353 4.3394432 17 0 0 0 0
0.39679933 -5.9342871 4.358336 30.590508 0 0 0 0
0.78903353 -5.9409208 4.4401026 33.435333 0 0 0 0
1.0043771 -5.9734678 4.3636551 31.66333 0 0 0 0
1.3096006 -5.9797215 4.347209 29.006001 0 0 0 0
1.7104559 -5.9691052 4.3562694 33.623577 0 0 0 0
2.0488281 -5.9637108 4.3817024 35.512703 0 0 0 0
2.2521336 -5.9723539 4.2858286 33.347084 0 0 0 0
2.553117 -5.9731665 4.3035183 33.432472 0 0 0 0
2.7709289 -5.9663754 4.4037528 34.173817 0 0 0 0
3.1199229 -5.9322419 4.3920999 31.771484 0 0 0 0
3.4379432 -5.9676204 4.3853602 33.410862 0 0 0 0
3.6484981 -5.930028 4.4776201 29.875 0 0 0 0
4.0287714 -5.9626436 4.401413 36.5 0 0 0 0
-1.527724 -5.6904783 4.4978108 31 0 0 0 0
-1.4114897 -5.5097327 4.4963484 29.75 0 0 0 0
1.0922654 -5.453095 4.499464 40 0 0 0 0
1.3136532 -5.4800014 4.4992981 31.75 0 0 0 0
1.6489484 -5.5033293 4.4971261 28.703125 0 0 0 0
2.0240884 -5.4551525 4.4941311 33.088097 0 0 0 0
2.1401772 -5.432065 4.4918804 28.25 0 0 0 0
2.4868698 -5.542522 4.4998732 30 0 0 0 0
2.8275073 -5.4854102 4.497292 28.833334 0 0 0 0
3.1689787 -5.484107 4.4954662 31.522156 0 0 0 0
3.3479607 -5.4253826 4.4947662 28.5 0 0 0 0
-3.3600731 -5.3193054 4.4786787 2 0 0 0 0
-2.5272446 -5.236351 4.491394 35.75 0 0 0 0
-2.2219865 -5.253037 4.4875393 32.5 0 0 0 0
-1.8785604 -5.2436171 4.487751 1.75 0 0 0 0
-1.6114004 -5.1592412 4.4969416 35.69503 0 0 0 0
-1.4207373 -5.1786194 4.4961705 39.75 0 0 0 0
0.19420862 -5.158329 4.4996591 34 0 0 0 0
0.48933983 -5.2938552 4.4944286 26.803308 0 0 0 0
0.72261494 -5.2061524 4.4981899 38.25613 0 0 0 0
1.0239561 -5.1524715 4.4973755 36.854168 0 0 0 0
1.330611 -5.2244768 4.4755011 29.118248 0 0 0 0
1.6583679 -5.2890964 4.4918561 31.149269 0 0 0 0
1.972551 -5.1701407 4.4738235 33.088371 0 0 0 0
2.1747701 -5.2383952 4.4656906 28.873514 0 0 0 0
2.4919164 -5.2093649 4.4618249 31.316959 0 0 0 0
2.8558488 -5.1887293 4.4918299 33.82132 0 0 0 0
3.1372156 -5.167038 4.4863577 32.081787 0 0 0 0
3.4077449 -5.2187252 4.4895244 32.319664 0 0 0 0
3.8041072 -5.3513765 4.4909859 31.5 0 0 0 0
-3.9416423 -4.9918609 4.4890285 1 0 0 0 0
-3.5863154 -4.843287 4.4973063 3 0 0 0 0
-2.2811213 -5.0058722 4.496871 34 0 0 0 0
-1.5713184 -4.8907633 4.4976482 35.8125 0 0 0 0
-1.3333604 -4.9912372 4.4962406 25.621744 0 0 0 0
-0.32821009 -5.0475616 4.4959111 39 0 0 0 0
0.36519703 -4.9329123 4.4927192 36.637596 0 0 0 0
0.73636389 -4.9619007 4.4981546 38.307163 0 0 0 0
1.1042261 -4.9868832 4.4971056 37.098255 0 0 0 0
1.4196228 -4.9019103 4.4929609 34.732079 0 0 0 0
1.5893364 -4.9977355 4.4912095 37.800293 0 0 0 0
2.001133 -4.9544067 4.4916525 37.565361 0 0 0 0
2.189177 -5.0172114 4.4954376 33.87767 0 0 0 0
2.6039195 -4.9400411 4.4949174 35.122643 0 0 0 0
2.7915542 -4.9380231 4.4962282 35.152954 0 0 0 0
3.0606091 -4.9610929 4.4881296 30.583422 0 0 0 0
3.3946509 -5.023726 4.4836311 31.921875 0 0 0 0
3.6093366 -4.9147015 4.4760542 32.5 0 0 0 0
4.0180302 -4.9117208 4.485249 30 0 0 0 0
4.3446469 -5.0930867 4.4798021 29 0 0 0 0
4.5339384 -5.0324621 4.4749184 29 0 0 0 0
-2.6062791 -4.7454057 4.4934258 21 0 0 0 0
-2.2227411 -4.5714111 4.4894848 12.75 0 0 0 0
-1.9435182 -4.5478468 4.4842501 22.666666 0 0 0 0
-1.6257491 -4.7169952 4.4978056 28.339363 0 0 0 0
-1.3352203 -4.5881758 4.4983425 34.858047 0 0 0 0
-1.185022 -4.6111512 4.4944377 5 0 0 0 0
0.22340143 -4.6307425 4.4944358 35 0 0 0 0
0.42567343 -4.5703087 4.4953852 36.031494 0 0 0 0
0.68026567 -4.6745272 4.4979649 36.625343 0 0 0 0
1.0691694 -4.5507574 4.4941769 38.369877 0 0 0 0
1.3265676 -4.6348381 4.4940186 36.079948 0 0 0 0
1.5733604 -4.5592408 4.4902658 37.982925 0 0 0 0
1.900784 -4.658371 4.4827995 38.50322 0 0 0 0
2.1344697 -4.6213827 4.4858389 39.443222 0 0 0 0
2.563036 -4.6580553 4.4869041 37.549 0 0 0 0
2.8663063 -4.5805044 4.4834428 31.211056 0 0 0 0
3.1467676 -4.690896 4.4759145 37.37207 0 0 0 0
3.3840666 -4.5871611 4.4654598 31.125 0 0 0 0
3.7703059 -4.7630758 4.4756365 30 0 0 0 0
3.9690633 -4.7104845 4.480536 31.75 0 0 0 0
-2.8756433 -4.3524961 4.471796 5 0 0 0 0
-2.4967494 -4.4974928 4.4935193 14 0 0 0 0
-2.2727547 -4.3799968 4.4842453 3.4479165 0 0 0 0
-1.916056 -4.4008551 4.4916124 25.5 0 0 0 0
-1.7046516 -4.3308406 4.4906034 8.197917 0 0 0 0
-1.428409 -4.3001823 4.4979038 31.002708 0 0 0 0
-1.163059 -4.4530735 4.4989257 33.85376 0 0 0 0
-0.37087238 -4.2251391 4.4992819 37.666668 0 0 0 0
0.44475263 -4.4110913 4.4939871 34.012062 0 0 0 0
0.76611894 -4.4070435 4.495461 37.223038 0 0 0 0
1.1005354 -4.3922472 4.4975271 35.364586 0 0 0 0
1.3365397 -4.3532343 4.4961472 36.322693 0 0 0 0
1.564271 -4.4434428 4.4872971 38.149773 0 0 0 0
2.0184708 -4.4051394 4.48036 37.746536 0 0 0 0
2.339432 -4.3271475 4.4819012 35.44001 0 0 0 0
2.588542 -4.4040613 4.4860249 36.692192 0 0 0 0
2.7948203 -4.2963333 4.4747066 35.192867 0 0 0 0
3.0988765 -4.4513597 4.4708652 37.5 0 0 0 0
3.3700485 -4.4252577 4.4646044 34 0 0 0 0
3.9142208 -4.4152894 4.4708476 31.25 0 0 0 0
-3.9932029 -4.145226 4.498323 0 0 0 0 0
-2.5905859 -4.0197372 4.4916935 17.289062 0 0 0 0
-2.2654612 -4.1114101 4.4854231 16.125 0 0 0 0
-1.9179769 -4.159481 4.4901571 14.627604 0 0 0 0
-1.306798 -4.0101914 4.4988518 16.725021 0 0 0 0
-1.1690583 -4.0245714 4.4980736 33.25 0 0 0 0
0.38598642 -4.1495929 4.4956985 35.398952 0 0 0 0
0.72406971 -4.0811892 4.4989376 35.816944 0 0 0 0
1.0734251 -4.052362 4.4980907 37.379639 0 0 0 0
1.4504941 -3.9914341 4.4935255 37.092743 0 0 0 0
1.5572652 -3.9954717 4.4905653 37.111927 0 0 0 0
2.0297091 -4.010036 4.4830484 37.44767 0 0 0 0
2.1761127 -4.0093346 4.4841576 36.878548 0 0 0 0
2.6409497 -4.0010352 4.4829798 34.91428 0 0 0 0
2.8611743 -3.9769015 4.4722166 37.495293 0 0 0 0
3.0759888 -4.0567594 4.4736919 38.172005 0 0 0 0
3.5187619 -3.9550054 4.4652758 37.927437 0 0 0 0
3.8070393 -4.0851831 4.4647174 33.438477 0 0 0 0
3.9066722 -4.1846271 4.4644098 30 0 0 0 0
4.2680187 -4.049859 4.4727716 30.9375 0 0 0 0
-3.4316149 -3.6900578 4.4830942 6.1666665 0 0 0 0
-3.0861163 -3.7134004 4.4807281 8.947916 0 0 0 0
-2.9194739 -3.7317071 4.4915895 12.25 0 0 0 0
-2.4825349 -3.6693125 4.4776745 13.332292 0 0 0 0
-2.1755905 -3.6775126 4.4809227 22.578125 0 0 0 0
-1.9238434 -3.6893463 4.4842877 24.117857 0 0 0 0
-1.7111802 -3.7548819 4.4895992 22.709276 0 0 0 0
-1.3591743 -3.6988077 4.495162 11.866755 0 0 0 0
-1.1479869 -3.7165833 4.4935474 8.269043 0 0 0 0
0.37611926 -3.8465312 4.4965601 35.433594 0 0 0 0
0.70457935 -3.7777419 4.4954796 35.526043 0 0 0 0
1.1026313 -3.7867131 4.4969387 40.461281 0 0 0 0
1.3123106 -3.8159328 4.4967728 41.484795 0 0 0 0
1.573401 -3.6876378 4.4910822 36.847145 0 0 0 0
2.0133591 -3.6629055 4.4845748 38.463142 0 0 0 0
2.1363425 -3.7245531 4.4827547 38.125923 0 0 0 0
2.5608287 -3.8309634 4.4751077 35.315681 0 0 0 0
2.9170856 -3.8393774 4.478179 35.858192 0 0 0 0
3.1607766 -3.7134271 4.4715953 37.803673 0 0 0 0
3.3734369 -3.6915693 4.4683914 36.011677 0 0 0 0
3.8154511 -3.7482872 4.4562645 36.013798 0 0 0 0
4.1875682 -3.7347257 4.4644098 29.625 0 0 0 0
4.3315358 -3.8263762 4.46558 30 0 0 0 0
-5.1900821 -3.4097648 4.4989214 1 0 0 0 0
-3.6580782 -3.3918309 4.4896259 15.901026 0 0 0 0
-3.4193027 -3.4071827 4.4907627 17.222176 0 0 0 0
-3.2245226 -3.4373331 4.4864106 9.588541 0 0 0 0
-2.9075222 -3.4577973 4.4871798 11.875 0 0 0 0
-2.5326114 -3.4748363 4.47999 20.143749 0 0 0 0
-2.303586 -3.4708984 4.4797621 24.26302 0 0 0 0
-1.8642808 -3.4346471 4.4818697 25.412102 0 0 0 0
-1.6588188 -3.359782 4.4893026 12.03125 0 0 0 0
-1.3109853 -3.540669 4.4978313 16.8312 0 0 0 0
-1.039873 -3.4129286 4.4903231 18.316666 0 0 0 0
-0.83778685 -3.3693419 4.4837523 1 0 0 0 0
1.1645682 -3.5946746 4.486176 35.5 0 0 0 0
1.4039596 -3.5638642 4.4914265 34 0 0 0 0
1.7382972 -3.4852598 4.4881401 36.957031 0 0 0 0
2.0155687 -3.5827441 4.4830194 38.682274 0 0 0 0
2.2277808 -3.4162116 4.4809065 36.012665 0 0 0 0
2.5100822 -3.5407853 4.4777584 36.372406 0 0 0 0
2.9470744 -3.4604897 4.4732342 35.501122 0 0 0 0
3.1045604 -3.5070472 4.4697247 33.278458 0 0 0 0
3.4155073 -3.4984999 4.4637728 36.169624 0 0 0 0
3.8055656 -3.4953811 4.4659429 32.11409 0 0 0 0
4.0118194 -3.4230409 4.4711103 28.876953 0 0 0 0
4.3581591 -3.3527737 4.4625182 28.304688 0 0 0 0
-4.4568577 -3.031219 4.4971056 1 0 0 0 0
-3.9849262 -3.0480795 4.4931927 23 0 0 0 0
-3.8240213 -3.0853448 4.4779024 5.3891816 0 0 0 0
-3.42765 -3.1519651 4.4815321 11.753151 0 0 0 0
-3.195673 -3.0400493 4.4839425 5.7866006 0 0 0 0
-2.9510455 -3.0977387 4.4912205 5.65625 0 0 0 0
-2.4922209 -3.162035 4.4795842 23.371744 0 0 0 0
-2.2337155 -3.1748974 4.4798079 26.409374 0 0 0 0
-1.9968473 -3.1088595 4.4756107 23.563395 0 0 0 0
-1.7004278 -3.0722797 4.474381 10.336676 0 0 0 0
-1.3994808 -3.1630197 4.4752464 12.520833 0 0 0 0
2.0415244 -3.2832792 4.4771013 33.565735 0 0 0 0
2.2468181 -3.2158375 4.4607668 26.59646 0 0 0 0
2.4929242 -3.1022236 4.4734216 33.717449 0 0 0 0
2.8530765 -3.1675377 4.4775262 34.425838 0 0 0 0
3.1899681 -3.2636957 4.4722075 32.788734 0 0 0 0
3.4381304 -3.0824728 4.4712486 34.63686 0 0 0 0
3.7408924 -3.1159554 4.4675989 34.364544 0 0 0 0
4.1045809 -3.1805325 4.4709382 27.869141 0 0 0 0
4.4370193 -3.2519317 4.4665976 27.25 0 0 0 0
-4.4102411 -2.9893517 4.4846764 6.5 0 0 0 0
-3.9062555 -2.9170265 4.4979115 2 0 0 0 0
-3.7581487 -2.974071 4.4912252 10.25 0 0 0 0
-3.4071553 -2.9288516 4.483408 16.484375 0 0 0 0
-3.0917833 -2.9643657 4.483942 16.819262 0 0 0 0
-2.5782065 -2.9240077 4.4756613 10.25 0 0 0 0
-2.3589382 -2.9648852 4.474761 12.5 0 0 0 0
-1.9190288 -2.928812 4.4750586 38.28125 0 0 0 0
-1.7528324 -2.945013 4.469841 33.25 0 0 0 0
2.3350496 -2.950304 4.4804897 37.575298 0 0 0 0
2.6283073 -2.9624026 4.4760723 38.876431 0 0 0 0
2.9074602 -2.9326315 4.4754219 35.602108 0 0 0 0
3.0599313 -2.8925343 4.4714937 32.931641 0 0 0 0
3.4515774 -2.9036968 4.4725571 31.133347 0 0 0 0
3.7233558 -2.9685657 4.4701319 32.286194 0 0 0 0
4.0364976 -2.9198222 4.4664335 29.554688 0 0 0 0
4.3484058 -2.8703976 4.4681177 34.125 0 0 0 0
4.6243124 -2.893513 4.4659491 37 0 0 0 0
2.3916867 -2.6828372 4.2531743 35.5 0 0 0 0
2.5176377 -2.6841016 4.2542806 34.625 0 0 0 0
-4.3333225 -2.2355862 4.3543024 0.390625 0 0 0 0
-4.013495 -2.2363992 4.3305888 0.11328125 0 0 0 0
-3.4093451 -2.1727288 4.3151069 1 0 0 0 0
-2.7964644 -2.2368534 4.2795644 11 0 0 0 0
-2.5158055 -2.2134857 4.2440429 19.375 0 0 0 0
-2.3356962 -2.1864777 4.2779498 0.75 0 0 0 0
2.8096733 -2.1757054 4.2026057 19 0 0 0 0
3.2950363 -2.1480727 4.4427109 31 0 0 0 0
3.4996705 -2.1522517 4.3747845 23.53125 0 0 0 0
4.036046 -2.1291766 4.4599586 23 0 0 0 0
20.809704 -2.1285996 4.253304 4 0 0 0 0
21.438141 -2.1061726 4.2704806 7 0 0 0 0
21.803717 -2.1037102 4.2387414 4 0 0 0 0
-4.1756897 -1.945419 4.4718223 1 0 0 0 0
3.5033402 -1.9802719 4.4579697 34.375 0 0 0 0
3.7706366 -1.9356869 4.4450741 29.583332 0 0 0 0
4.0169673 -1.9643312 4.4572105 18 0 0 0 0
20.640015 -2.0786107 4.2410274 4.5 0 0 0 0
20.840841 -2.049614 4.2653828 4.75 0 0 0 0
21.191132 -2.0378985 4.3205538 5.0151367 0 0 0 0
21.383608 -2.0027435 4.3568854 5.1347656 0 0 0 0
21.719139 -2.0164311 4.332552 6.1602154 0 0 0 0
21.9729 -1.8357023 4.2651052 10.767937 0 0 0 0
21.230087 -1.7899121 4.3594384 2 0 0 0 0
21.834557 -1.7872188 4.4119968 5.5 0 0 0 0
21.99618 -1.7305212 4.318552 9.8174744 0 0 0 0
21.892485 -1.3732978 4.3183384 9 0 0 0 0
21.97015 -1.2455103 4.3004951 4.6962891 0 0 0 0
-4.7437792 -1.1370828 4.4525914 0 0 0 0 0
21.143278 -1.1319221 4.3099012 3.515625 0 0 0 0
21.509581 -1.1241138 4.3127441 4 0 0 0 0
21.68346 -1.0023098 4.377418 5 0 0 0 0
21.981045 -1.1165471 4.2862673 10.71655 0 0 0 0
20.988432 -0.88013661 4.2886271 3 0 0 0 0
21.054874 -0.75293142 4.3090725 3 0 0 0 0
21.470173 -0.76004839 4.3508391 5 0 0 0 0
21.745602 -0.65880597 4.3752699 8 0 0 0 0
21.962048 -0.74165201 4.298564 11.100059 0 0 0 0
21.226419 -0.58006364 4.3232899 5.5 0 0 0 0
21.391035 -0.56859571 4.3349781 5 0 0 0 0
21.956757 -0.5825792 4.3056426 9.6875 0 0 0 0
-4.9605799 0.82302684 4.452292 0 0 0 0 0
-4.8956676 1.1012061 4.4415412 0 0 0 0 0
-3.7162249 1.0198865 4.4483743 0 0 0 0 0
-4.9447598 1.2358887 4.4696918 0 0 0 0 0
-4.4754128 1.4226594 4.4214134 1 0 0 0 0
-4.5930023 1.6534761 4.4349709 0.5 0 0 0 0
-3.6853015 1.6794895 4.4299707 1 0 0 0 0
-3.435091 1.7404268 4.442987 1 0 0 0 0
-3.175281 1.6654457 4.4594216 11.15625 0 0 0 0
-4.601903 1.9387792 4.4214544 2 0 0 0 0
-4.0739355 2.0542135 4.4150176 1 0 0 0 0
-3.8146546 2.0034134 4.4661007 7.9166665 0 0 0 0
-3.3940325 1.9091612 4.4620943 1.0819499 0 0 0 0
-3.2285848 1.959994 4.4625573 4.1408691 0 0 0 0
-4.6104212 2.1761584 4.4341326 0.63085938 0 0 0 0
-4.4930911 2.2920361 4.425179 0.6875 0 0 0 0
-4.0646868 2.213553 4.4524126 5.2734375 0 0 0 0
-3.7255039 2.3320937 4.4337606 15.069287 0 0 0 0
-3.486016 2.3171852 4.4481874 14.174235 0 0 0 0
-3.2033777 2.2859025 4.4309735 14.5625 0 0 0 0
-2.8516009 2.3334556 4.4376984 28.094234 0 0 0 0
-5.121603 2.6227529 4.4701252 0 0 0 0 0
-5.0893607 2.5946109 4.448277 1 0 0 0 0
-4.6695728 2.5606844 4.4272585 1 0 0 0 0
-4.3424015 2.5977607 4.4478455 1.5 0 0 0 0
-4.1151028 2.5526543 4.4360542 4.796916 0 0 0 0
-3.8103342 2.5755463 4.4343276 16.292969 0 0 0 0
-3.5643775 2.6058695 4.4428978 15.394287 0 0 0 0
-3.1444492 2.5894842 4.4377079 28.172863 0 0 0 0
-2.8922787 2.5786352 4.4375234 20.075268 0 0 0 0
-2.6069045 2.6073904 4.4456496 13.947454 0 0 0 0
2.6845675 2.6600435 4.4036431 34.429688 0 0 0 0
2.8503737 2.6085534 4.4060421 35.84375 0 0 0 0
3.1179183 2.6603048 4.4005518 34.250671 0 0 0 0
3.4052825 2.6142142 4.3997679 33.5625 0 0 0 0
-4.2545495 2.784903 4.4494762 11.986328 0 0 0 0
-3.9974685 2.8275905 4.3884516 10.062571 0 0 0 0
-3.7432914 2.8155823 4.3972044 1.3448606 0 0 0 0
-3.4393647 2.8115196 4.391243 18.211712 0 0 0 0
-3.2186949 2.7804837 4.4309092 14.79162 0 0 0 0
-2.9000263 2.8255455 4.3125648 10.700179 0 0 0 0
-2.5597289 2.8126926 4.3810291 21.626152 0 0 0 0
-2.3281956 2.8772721 4.2564878 7.5234375 0 0 0 0
-1.9837499 2.8729393 4.2042489 17 0 0 0 0
2.306123 2.9179056 4.3073912 24 0 0 0 0
2.6362596 2.8291769 4.4009771 38.630623 0 0 0 0
2.8862371 2.8619041 4.3326354 33.748581 0 0 0 0
3.204776 2.8271561 4.3947926 35.471779 0 0 0 0
3.5109901 2.8660874 4.2995062 29.001369 0 0 0 0
3.8317332 2.7964139 4.3854876 25.53125 0 0 0 0
-3.4652352 3.1764405 4.3554511 23 0 0 0 0
-5.1322494 3.5081239 4.4891043 0 0 0 0 0
-4.4941673 3.5315781 4.4269381 35 0 0 0 0
-4.0307479 3.5748887 4.425683 15.6875 0 0 0 0
-3.7861524 3.5539942 4.4222932 28.395081 0 0 0 0
-3.4987845 3.5752254 4.4233036 9.4648438 0 0 0 0
-3.1409445 3.5875075 4.4228196 10 0 0 0 0
-2.7781963 3.5913987 4.4139166 21.75 0 0 0 0
-2.5988355 3.5777535 4.4171939 10.734163 0 0 0 0
-2.1812723 3.512887 4.3997607 18.193346 0 0 0 0
-2.0618386 3.4727468 4.3292632 31.75 0 0 0 0
-1.4854828 3.5872915 4.4354486 0 0 0 0 0
1.4060441 3.4032602 4.2423096 30 0 0 0 0
1.5553875 3.413476 4.2246027 30.92231 0 0 0 0
1.9956921 3.4346468 4.239574 29.950684 0 0 0 0
2.2297459 3.5242233 4.3462515 38.839844 0 0 0 0
2.5927243 3.4240181 4.2321258 33.546875 0 0 0 0
2.8246312 3.4429681 4.2525239 36.520508 0 0 0 0
3.1457205 3.4500928 4.2626171 35.25 0 0 0 0
3.5409694 3.507575 4.3032775 36 0 0 0 0
3.6984339 3.5900626 4.3862028 33.5 0 0 0 0
4.1295223 3.599659 4.3875132 36 0 0 0 0
-5.2612739 3.6805894 4.4619551 0 0 0 0 0
-4.170083 3.7346735 4.4326119 8.2004395 0 0 0 0
-3.7625053 3.7307661 4.4084244 26.330395 0 0 0 0
-3.4398122 3.7460036 4.4046974 25.216309 0 0 0 0
-3.0880675 3.7365336 4.4228764 9.625 0 0 0 0
-2.7896118 3.6872418 4.4059801 35.816406 0 0 0 0
-2.5303493 3.7609882 4.4077554 34.104424 0 0 0 0
-2.2819424 3.7506695 4.4115891 31.741718 0 0 0 0
-1.9543326 3.7586179 4.4239006 32.750694 0 0 0 0
-1.5505371 3.8379951 4.4585161 4.9141135 0 0 0 0
-1.3702643 3.8074713 4.4259758 26.036266 0 0 0 0
-1.1371546 3.8401875 4.4248552 23.445621 0 0 0 0
-0.76551521 3.8608546 4.4448886 10 0 0 0 0
0.84349662 3.8686814 4.4086227 35.458336 0 0 0 0
1.078845 3.8823061 4.4048729 34.919342 0 0 0 0
1.4902878 3.8050227 4.4110413 32.865467 0 0 0 0
1.6383303 3.7648563 4.4100776 35.050869 0 0 0 0
2.048667 3.6157959 4.4075246 36.4814 0 0 0 0
2.1768064 3.6435194 4.4073572 34.590755 0 0 0 0
2.5257845 3.7333982 4.4061604 35.277699 0 0 0 0
2.9461999 3.7922723 4.4028358 33.741158 0 0 0 0
3.1521297 3.6766505 4.4041405 36.566013 0 0 0 0
3.4412649 3.8125176 4.3963051 37.642769 0 0 0 0
3.7350242 3.7181339 4.3888912 32.56802 0 0 0 0
4.0866423 3.6463704 4.3889337 31.429688 0 0 0 0
4.2478628 3.7344551 4.385869 30.25 0 0 0 0
-4.4156618 4.0336318 4.4252815 1 0 0 0 0
-4.0290184 3.9584212 4.4063468 24.319132 0 0 0 0
-3.8882401 3.9813876 4.4077077 8.609375 0 0 0 0
-3.5500436 4.0910854 4.3920145 29.25 0 0 0 0
-3.0598333 4.0063348 4.4046116 21.9 0 0 0 0
-2.7737715 4.0608807 4.3964043 35.592186 0 0 0 0
-2.5885549 4.0644665 4.3922997 37.625 0 0 0 0
-1.8553145 3.9883299 4.4131384 31.933773 0 0 0 0
-1.5363066 3.9702616 4.4381056 8.5740261 0 0 0 0
-1.3956873 4.0713286 4.4162111 29.590775 0 0 0 0
-0.99513763 4.0150304 4.4227681 34.934387 0 0 0 0
-0.68441522 4.1541138 4.4289927 36.066021 0 0 0 0
-0.58854437 4.0592747 4.4288354 36 0 0 0 0
-0.13506559 3.9945054 4.2252645 31 0 0 0 0
0.15571578 4.1765733 4.4128523 35.481239 0 0 0 0
0.54226452 4.0761051 4.4062166 35.669479 0 0 0 0
0.70156002 4.0405569 4.4033422 35.598495 0 0 0 0
1.1243597 3.9721308 4.4061337 34.522686 0 0 0 0
1.2447023 3.9837623 4.4083972 34.368362 0 0 0 0
1.5921221 3.9722166 4.4101534 32.877064 0 0 0 0
2.0085261 3.9652214 4.4038191 35.480644 0 0 0 0
2.2281175 4.0693817 4.388341 32.48711 0 0 0 0
2.4817674 3.9355049 4.3985481 33.543377 0 0 0 0
2.9505913 3.9945762 4.398746 35.773586 0 0 0 0
3.1918597 4.0492716 4.3904839 29.666597 0 0 0 0
3.5073278 4.0400786 4.3916302 35.838333 0 0 0 0
3.6982381 4.0557117 4.3857965 31.240692 0 0 0 0
3.9891229 4.04985 4.3762822 30 0 0 0 0
-4.7903662 4.3621645 4.4121361 0 0 0 0 0
-4.2619987 4.3479939 4.4036455 1.5 0 0 0 0
-4.1746931 4.2387009 4.4088774 3.265625 0 0 0 0
-3.6019683 4.2088013 4.3677435 37 0 0 0 0
-3.3878007 4.4403868 4.4004459 15.5 0 0 0 0
-3.2500973 4.2160468 4.3903842 25 0 0 0 0
-2.8430457 4.4477577 4.3763332 22.9375 0 0 0 0
-2.4605165 4.2699909 4.3998117 21.979168 0 0 0 0
-2.1297956 4.2925916 4.3931255 33.868752 0 0 0 0
-2.0377893 4.3375649 4.3897905 36.833336 0 0 0 0
-1.670754 4.3746376 4.4152269 15.75 0 0 0 0
-1.4204631 4.2700396 4.4159651 25.733978 0 0 0 0
-0.9410162 4.2593622 4.4171352 35.077312 0 0 0 0
-0.63431066 4.2386475 4.4271259 35.970066 0 0 0 0
-0.57643092 4.3071198 4.4336166 34.5 0 0 0 0
0.21108352 4.2551928 4.4078732 35.604744 0 0 0 0
0.55710369 4.2706189 4.4072928 33.455647 0 0 0 0
0.64823914 4.2834291 4.401433 34.862228 0 0 0 0
0.99487489 4.2797942 4.4058061 32.726906 0 0 0 0
1.4550859 4.3514614 4.3970737 33.1115 0 0 0 0
1.5653976 4.4113116 4.3869286 31.326914 0 0 0 0
2.0454059 4.3051662 4.3950186 33.340393 0 0 0 0
2.2247868 4.3599024 4.3790565 26.208366 0 0 0 0
2.462141 4.4178343 4.3929291 27.701097 0 0 0 0
2.8938818 4.2811108 4.3965063 33.155346 0 0 0 0
3.1082702 4.3244576 4.3937941 34.976021 0 0 0 0
3.5170822 4.461309 4.3880405 28.642986 0 0 0 0
3.7027452 4.3271604 4.3870907 30.587585 0 0 0 0
4.1422911 4.4588227 4.3802185 29 0 0 0 0
-4.6231852 4.7116547 4.4091854 3.75 0 0 0 0
-4.4837494 4.5477552 4.4060688 4.75 0 0 0 0
-3.7875059 4.6298437 4.3920341 29.25 0 0 0 0
-3.4603372 4.6628246 4.3863506 27.75 0 0 0 0
-3.1665106 4.6265016 4.3881121 34.96875 0 0 0 0
-2.8758516 4.715353 4.3982153 28.375 0 0 0 0
-2.5522566 4.6645737 4.3911467 34.515625 0 0 0 0
-2.170104 4.5722775 4.404088 12.925926 0 0 0 0
-1.8914173 4.7119904 4.4109693 11.864323 0 0 0 0
-1.5902869 4.6461816 4.4063091 33.198647 0 0 0 0
-1.4029994 4.6141734 4.4056664 36.684349 0 0 0 0
-0.94661689 4.5994868 4.4161177 35.714622 0 0 0 0
-0.65361083 4.6231642 4.4252448 36.084167 0 0 0 0
-0.5993312 4.5639887 4.4271584 31 0 0 0 0
0.21455224 4.6231737 4.3997545 35.42453 0 0 0 0
0.55855429 4.6561351 4.4042206 33.489777 0 0 0 0
0.69572449 4.7572374 4.3994846 35.495914 0 0 0 0
1.0226512 4.7180376 4.3965187 35.671028 0 0 0 0
1.4105372 4.7331114 4.3920612 28.976145 0 0 0 0
1.6347184 4.6756406 4.3935418 33.851189 0 0 0 0
2.0253727 4.6116238 4.3820276 32.250366 0 0 0 0
2.3380029 4.561552 4.3881855 27.066181 0 0 0 0
2.6322603 4.620841 4.3945379 28.113668 0 0 0 0
2.8844271 4.7217031 4.3945789 30.041084 0 0 0 0
3.1109781 4.6121311 4.3943233 34.122478 0 0 0 0
3.4388423 4.6969533 4.3933196 32.263916 0 0 0 0
3.7023973 4.6795177 4.3852367 29.471008 0 0 0 0
-4.8030419 4.8888402 4.4138794 4 0 0 0 0
-3.9904799 4.9289703 4.4010839 15.666666 0 0 0 0
-3.4782655 5.0147963 4.402986 22.125 0 0 0 0
-3.1417708 4.917851 4.3975854 27.875 0 0 0 0
-2.8286328 4.9747715 4.3994112 26.5 0 0 0 0
-2.4854817 4.9100046 4.3988771 27.881945 0 0 0 0
-2.1510482 4.9683099 4.4302282 18 0 0 0 0
-1.9347738 4.9559774 4.4207807 17.025011 0 0 0 0
-1.5681612 4.8626337 4.4124236 34.796455 0 0 0 0
-1.414645 5.0476985 4.4095955 35.034103 0 0 0 0
-0.98578417 4.8937426 4.412878 33.346256 0 0 0 0
-0.68024361 4.9984913 4.4164524 36.457764 0 0 0 0
0.2499142 5.0368052 4.4047089 33.695965 0 0 0 0
0.52595615 4.921587 4.3987398 33.695107 0 0 0 0
0.74380982 4.9975591 4.4021378 36.934086 0 0 0 0
1.1203818 4.9506788 4.4038219 34.736534 0 0 0 0
1.4539349 4.8907423 4.396925 31.193266 0 0 0 0
1.5750957 4.9450111 4.4028406 31.740051 0 0 0 0
2.0294671 5.0117211 4.3960524 28.250278 0 0 0 0
2.2381947 4.9627447 4.3977342 26.936319 0 0 0 0
2.5429254 4.9377804 4.3883533 28.398481 0 0 0 0
2.9090495 5.0269165 4.4011569 29.165724 0 0 0 0
3.1132855 4.9141226 4.3921928 28.1875 0 0 0 0
3.4967642 4.9739485 4.38375 30 0 0 0 0
3.7097232 5.0187573 4.390729 29.75 0 0 0 0
-4.943202 5.1145244 4.4342403 0 0 0 0 0
-4.7091866 5.1598544 4.4347286 0.5 0 0 0 0
-3.0327635 5.2700405 4.4102044 22.5 0 0 0 0
-2.8594344 5.1013365 4.4070683 30 0 0 0 0
-2.6157644 5.2739277 4.397131 28.041668 0 0 0 0
-2.2002883 5.2954273 4.4262686 11.875 0 0 0 0
-1.9947191 5.1650782 4.4249077 19.0625 0 0 0 0
-1.6202255 5.2209988 4.4123259 36.881596 0 0 0 0
-1.4083564 5.2131476 4.4139996 31.419094 0 0 0 0
-0.964715 5.2845402 4.4175558 30.581291 0 0 0 0
-0.68387383 5.2236032 4.4061432 31.698725 0 0 0 0
-0.05041226 5.3656383 4.4195104 27.5 0 0 0 0
0.24764264 5.1844788 4.4094958 34.001221 0 0 0 0
0.50545692 5.3164959 4.3803482 31.625458 0 0 0 0
0.84929121 5.1409101 4.3944521 36.466663 0 0 0 0
1.0244452 5.1908345 4.4043798 34.935169 0 0 0 0
1.4165955 5.2810993 4.404954 28.8158 0 0 0 0
1.597231 5.2931132 4.409338 29.450138 0 0 0 0
1.9390745 5.3365269 4.4034576 29.133715 0 0 0 0
2.2281389 5.2075682 4.3981647 28.587715 0 0 0 0
2.5722198 5.1720281 4.3928261 28.939735 0 0 0 0
2.8081641 5.1841383 4.3917246 27.477915 0 0 0 0
3.5719666 5.1304111 4.3904924 30.5 0 0 0 0
3.7243557 5.2479935 4.3849115 28.25 0 0 0 0
-4.0540357 5.6788383 4.4143219 27.25 0 0 0 0
-3.6222279 5.6422653 4.4310427 18 0 0 0 0
-3.5065506 5.5502968 4.3415298 29.5 0 0 0 0
-3.0746856 5.6440001 4.3455095 27.816666 0 0 0 0
-2.772347 5.6374435 4.395678 24.15 0 0 0 0
-2.4490178 5.601191 4.4105692 28.666666 0 0 0 0
-2.2286124 5.5922322 4.4136949 13.895833 0 0 0 0
-1.9967625 5.5318198 4.4142265 29.564915 0 0 0 0
-1.6645648 5.5235081 4.4146261 31.504978 0 0 0 0
-1.4283314 5.643218 4.4107542 32.805176 0 0 0 0
-0.95028365 5.5655022 4.4111691 36.552765 0 0 0 0
-0.78242636 5.5741467 4.3948898 34.290184 0 0 0 0
-0.015459088 5.4585447 4.29634 27 0 0 0 0
0.24936727 5.4481459 4.3994894 29.259319 0 0 0 0
0.53522432 5.5230246 4.3974853 44.038551 0 0 0 0
0.71911758 5.5462408 4.4022884 32.026226 0 0 0 0
0.98659724 5.5451465 4.4036021 28.61618 0 0 0 0
1.4100071 5.6288366 4.4057555 29.863846 0 0 0 0
1.6357147 5.5578709 4.3999929 28.930569 0 0 0 0
2.0192282 5.5760636 4.4056606 27.147552 0 0 0 0
2.3145857 5.5866976 4.3587384 22.944208 0 0 0 0
2.5612416 5.5739422 4.3947735 27.754807 0 0 0 0
2.8246655 5.5217371 4.3934441 27.335682 0 0 0 0
3.722836 5.4990525 4.3879261 25 0 0 0 0
-3.6971083 5.7407742 4.3696914 29 0 0 0 0
-3.4185009 5.7480102 4.3601646 33.5 0 0 0 0
-3.1707466 5.7068801 4.369791 28.5 0 0 0 0
-2.4760404 5.7527418 4.2982635 16.666666 0 0 0 0
-2.318527 5.7519145 4.28512 10.930555 0 0 0 0
-2.0407114 5.7489676 4.280972 28.269045 0 0 0 0
-1.6737926 5.7332268 4.3177881 33.424217 0 0 0 0
-1.4094814 5.7674398 4.2545676 30.948761 0 0 0 0
-0.96621269 5.7641463 4.3145423 36.980587 0 0 0 0
-0.8092041 5.7663956 4.3262506 36.079529 0 0 0 0
0.25415578 5.7320867 4.3881569 30.660156 0 0 0 0
0.44702291 5.7354727 4.2722492 32.214043 0 0 0 0
0.82860458 5.7792253 4.3064384 31.752371 0 0 0 0
0.99332172 5.7800436 4.3106503 32.555191 0 0 0 0
1.3877304 5.7624187 4.3493571 30.848289 0 0 0 0
1.6007063 5.7712927 4.3187618 30.348049 0 0 0 0
1.9315598 5.7889299 4.2971191 31.349495 0 0 0 0
2.2491086 5.776814 4.3148451 29.35083 0 0 0 0
2.5557926 5.7854481 4.3298602 26.780273 0 0 0 0
2.8315787 5.7992759 4.3355994 27.717707 0 0 0 0
3.5710845 5.752039 4.3806267 27 0 0 0 0
-2.8295236 7.0934544 4.3843226 15.75 0 0 0 0
-2.6333773 7.1050043 4.3831463 27.299946 0 0 0 0
-2.2890942 7.1241398 4.3927155 28.704544 0 0 0 0
-1.9448947 7.1206264 4.3847551 27.04747 0 0 0 0
-1.6065843 7.1380835 4.3900404 27.945271 0 0 0 0
-1.3242638 7.0810919 4.3861647 24.605713 0 0 0 0
-1.0713487 7.0572901 4.3855109 24.046875 0 0 0 0
0.27191994 7.0655303 4.3971777 25 0 0 0 0
0.55541432 7.1253204 4.3865614 28 0 0 0 0
0.80310917 7.1353502 4.3872433 29.286459 0 0 0 0
1.0702103 7.1192641 4.3831644 27.447969 0 0 0 0
1.3351042 7.1038485 4.3778009 32.792656 0 0 0 0
1.6208272 7.1696234 4.3830256 32.745934 0 0 0 0
1.9771942 7.1184673 4.3809581 25.492403 0 0 0 0
2.2203336 7.1865196 4.3706179 29.198742 0 0 0 0
2.507659 7.1578364 4.367177 20.8265 0 0 0 0
2.8714409 7.1411324 4.3643351 23.830824 0 0 0 0
3.1859503 7.1215181 4.3653917 26.3125 0 0 0 0
3.4323516 7.1632662 4.370121 24.354168 0 0 0 0
3.7508392 7.1380057 4.3649077 23.666666 0 0 0 0
-4.2518077 7.2809558 4.4192924 1 0 0 0 0
-2.4580474 7.2417784 4.3975801 7.8952823 0 0 0 0
-2.2243776 7.2601233 4.3610196 36.525764 0 0 0 0
-2.0005505 7.2669716 4.3679981 32.349701 0 0 0 0
-1.6462014 7.3285646 4.3775845 28.209824 0 0 0 0
-1.3951471 7.269629 4.3860855 25.830582 0 0 0 0
-0.97076392 7.4449835 4.3861899 27.5625 0 0 0 0
0.26152581 7.3739848 4.3809953 27.166668 0 0 0 0
0.52208745 7.264811 4.3804026 28.3125 0 0 0 0
0.79159737 7.2970066 4.3899226 23.218973 0 0 0 0
1.0253893 7.3692741 4.3757477 15.996555 0 0 0 0
1.3684171 7.2435732 4.3530326 31.430847 0 0 0 0
1.710505 7.3425884 4.3474102 25.397448 0 0 0 0
1.9726911 7.402174 4.3595924 27.921484 0 0 0 0
2.272311 7.3536777 4.3526478 27.505243 0 0 0 0
2.5100751 7.3251171 4.3676691 26.243633 0 0 0 0
2.7777452 7.4382253 4.3663259 21.986839 0 0 0 0
3.2109182 7.3770437 4.3634815 21.791988 0 0 0 0
3.4095984 7.2848096 4.3688822 24.872826 0 0 0 0
3.6998496 7.2585578 4.36341 27 0 0 0 0
-3.1629 7.6926985 4.3874836 19 0 0 0 0
-2.5984347 7.7660131 4.3838863 18.860867 0 0 0 0
-2.1674581 7.6744547 4.3923864 24.623047 0 0 0 0
-1.9516921 7.7761106 4.3881302 26.293945 0 0 0 0
-1.7231309 7.700357 4.3933849 27.1875 0 0 0 0
-1.272297 7.7279825 4.3840747 26 0 0 0 0
-0.93154007 7.6472688 4.3912964 26.198923 0 0 0 0
0.27813062 7.7030458 4.3923011 24 0 0 0 0
0.51005489 7.703783 4.3876381 26.78125 0 0 0 0
0.8129288 7.6776848 4.3881121 26.453125 0 0 0 0
1.0357738 7.6557374 4.3839588 25.553997 0 0 0 0
1.3337969 7.6637096 4.3871212 24.246653 0 0 0 0
1.7486784 7.7450995 4.3795767 26.541119 0 0 0 0
1.9877124 7.7336597 4.384038 23.35331 0 0 0 0
2.2184422 7.747716 4.3826694 24.403519 0 0 0 0
2.5905609 7.7366905 4.3700285 19.583248 0 0 0 0
2.8075812 7.7037935 4.3679175 23.596283 0 0 0 0
3.1613712 7.7198257 4.3629379 22.832718 0 0 0 0
3.4690688 7.7246799 4.3549123 13.307292 0 0 0 0
3.7355695 7.7547035 4.3413725 12.125 0 0 0 0
-3.4745581 7.9976425 4.3810883 27 0 0 0 0
-3.1890972 7.9744234 4.4002757 18.625 0 0 0 0
-2.7731261 7.9326243 4.3910379 22.046875 0 0 0 0
-2.4898958 7.9698358 4.3850455 22.66427 0 0 0 0
-2.2139277 7.9416485 4.3886881 27.445389 0 0 0 0
-2.0055518 7.8956385 4.4011884 24.119057 0 0 0 0
-1.7136693 7.9564419 4.3929453 25.996052 0 0 0 0
-1.3916202 7.8756552 4.3854151 26.65625 0 0 0 0
-1.000121 7.9120049 4.3837137 25.570312 0 0 0 0
0.26319408 8.0182667 4.3867803 22.5 0 0 0 0
0.49374032 7.9180942 4.3893952 25.75 0 0 0 0
0.85004127 8.0105152 4.3848562 27.208332 0 0 0 0
1.098051 7.9501276 4.3917875 25.473867 0 0 0 0
1.3865249 7.867362 4.3813877 26.493887 0 0 0 0
1.6439897 7.8979387 4.381691 23.958576 0 0 0 0
1.9394257 7.9100513 4.3914609 24.076138 0 0 0 0
2.2522893 7.9931097 4.3757572 18.813068 0 0 0 0
2.4829535 7.9461017 4.3778915 19.052658 0 0 0 0
2.9007263 8.0046825 4.363513 24.76413 0 0 0 0
3.1386268 7.8710318 4.347127 20.509026 0 0 0 0
3.4841614 7.9757967 4.346385 16.483152 0 0 0 0
3.7422178 7.9165082 4.3596258 22.059029 0 0 0 0
-4.2980533 8.3059263 4.2807665 13 0 0 0 0
-4.0922737 8.2361774 4.3897052 11.5 0 0 0 0
-3.6589172 8.3609104 4.2902517 6.9797926 0 0 0 0
-3.5096107 8.3160439 4.372086 8.5638161 0 0 0 0
-3.14856 8.1746292 4.3698483 24.21875 0 0 0 0
-2.8628125 8.2336636 4.3662496 25.893454 0 0 0 0
-2.6021643 8.1970053 4.3580008 24.976416 0 0 0 0
-2.2167821 8.2965403 4.342308 12.969125 0 0 0 0
-1.9943438 8.2874184 4.3616915 21.388733 0 0 0 0
-1.7125144 8.2213554 4.3785377 30.124359 0 0 0 0
-1.3283056 8.2488422 4.3555155 26.453125 0 0 0 0
-1.097702 8.2502632 4.3810139 29 0 0 0 0
0.22978076 8.3178205 4.370369 28 0 0 0 0
0.49129856 8.2815914 4.3891597 25.9375 0 0 0 0
0.67341399 8.3124065 4.3684349 28.80599 0 0 0 0
1.1167972 8.2928467 4.3633509 26.627956 0 0 0 0
1.3732121 8.1975727 4.3766918 23.603264 0 0 0 0
1.7018101 8.2443275 4.372757 24.549782 0 0 0 0
1.9846087 8.3151274 4.3511028 28.869574 0 0 0 0
2.2824454 8.2461433 4.3669376 28.961458 0 0 0 0
2.5808921 8.3554478 4.3165798 33.330116 0 0 0 0
2.7634392 8.3443546 4.3411789 16.222034 0 0 0 0
3.2368541 8.3558607 4.3645506 28.570976 0 0 0 0
3.4214933 8.219059 4.3680334 24.251444 0 0 0 0
3.7060063 8.2745399 4.3429985 22.126759 0 0 0 0
3.9235902 8.3934069 4.2827854 31.5 0 0 0 0
2.8667743 8.4001846 4.2354593 29 0 0 0 0
3.1235693 8.4027119 4.2181468 25 0 0 0 0
3.4665844 8.4111004 4.273798 23.5 0 0 0 0
-14.141192 11.319165 4.2190847 14 0 0 0 0
13.612969 11.681158 4.2073874 34 0 0 0 0
13.606218 11.908611 4.2520456 48.331055 0 0 0 0
7.1926222 13.727052 4.4616303 31.125 0 0 0 0
7.2502203 13.629812 4.4009542 38.465023 0 0 0 0
7.5804272 13.61998 4.3665957 37.330681 0 0 0 0
7.8418121 13.605765 4.3958979 11.47281 0 0 0 0
7.1693463 13.966495 4.3835292 24.877947 0 0 0 0
7.2268105 13.835983 4.3179493 27.222223 0 0 0 0
7.1631513 14.225154 4.4107771 10.786177 0 0 0 0
-13.8429 30.071041 4.4877329 7 0 0 0 0
-5.7434592 33.212799 4.3933425 17 0 0 0 0
6.7185884 35.393333 4.4756947 9 0 0 0 0
6.2348099 35.595879 4.4327998 18 0 0 0 0
6.3856139 35.602665 4.3569956 10.375 0 0 0 0
7.0762949 35.665314 4.2629318 15.9375 0 0 0 0
7.3312826 35.617336 4.3244839 16.082031 0 0 0 0
7.5751948 35.638252 4.2649302 13 0 0 0 0
6.2762885 35.783577 4.3899298 12 0 0 0 0
6.509057 35.760307 4.3980646 16 0 0 0 0
6.6866426 35.885384 4.3543944 18.126953 0 0 0 0
6.9641423 35.834549 4.361474 16.395508 0 0 0 0
7.6823912 35.768288 4.2661819 15 0 0 0 0
6.9829888 36.09201 4.407599 15 0 0 0 0
7.7150755 36.246765 4.4456491 17.375 0 0 0 0
7.9343739 36.120476 4.2996178 15.291992 0 0 0 0
8.2663279 36.105793 4.3258519 14.732849 0 0 0 0
8.4224577 36.275658 4.3929801 14 0 0 0 0
8.3534145 36.435471 4.4437528 7 0 0 0 0
8.5026264 36.502182 4.3843951 8 0 0 0 0
8.9275532 36.50396 4.4142127 7 0 0 0 0
8.9170475 36.729671 4.4449382 13 0 0 0 0
9.7815542 36.86879 4.2421632 12 0 0 0 0
10.039236 36.84156 4.3086576 16 0 0 0 0
6.329452 36.981617 4.3968682 14 0 0 0 0
8.8775167 36.987503 4.4227757 10 0 0 0 0
9.2521172 37.08889 4.4394689 10 0 0 0 0
9.848032 36.977356 4.3704906 16.144531 0 0 0 0
9.9630079 36.957249 4.3371496 16 0 0 0 0
10.231958 36.988285 4.3365006 9 0 0 0 0
5.8802309 37.42408 4.4328156 16 0 0 0 0
6.0828085 37.366856 4.4116964 13.5 0 0 0 0
5.5815606 37.608337 4.352438 11 0 0 0 0
6.2282252 37.976147 4.478291 10 0 0 0 0
6.3692794 37.968788 4.4607978 10 0 0 0 0
9.8999786 39.1675 4.4021626 17 0 0 0 0
9.4432421 39.660641 4.3767967 16 0 0 0 0
0.66125417 -8.107482 4.5511727 0 0 0 0 0
-2.5679533 -8.0171061 4.5114498 21 0 0 0 0
1.6796812 -7.8126616 4.5041423 30 0 0 0 0
-2.7482629 -7.6840858 4.5174603 8.75 0 0 0 0
-2.568068 -7.6392088 4.5327754 29 0 0 0 0
-2.2725687 -7.6026096 4.5403967 24.75 0 0 0 0
-2.0130413 -7.5466805 4.5312448 10.25 0 0 0 0
2.2867229 -7.5264153 4.5036774 29 0 0 0 0
2.5926929 -7.6282387 4.5204177 26 0 0 0 0
2.7145793 -7.6166301 4.5003271 28 0 0 0 0
-2.5328588 -7.3139367 4.5028858 3 0 0 0 0
-2.1317725 -7.443275 4.5423021 7 0 0 0 0
-1.9895972 -7.4643431 4.5431304 16 0 0 0 0
0.95953691 -7.3858294 4.5041008 28 0 0 0 0
1.8689904 -7.3646541 4.503665 16 0 0 0 0
2.133822 -7.4233508 4.5077467 23.5625 0 0 0 0
2.8459303 -7.2601795 4.5002503 7 0 0 0 0
1.7054083 -7.193119 4.5166879 41 0 0 0 0
1.2540407 -6.083746 4.5084791 32.5 0 0 0 0
-3.1104145 -5.858633 4.5251245 15.5 0 0 0 0
-2.891284 -5.8331308 4.5161157 31 0 0 0 0
-2.672766 -5.9215422 4.5212898 33 0 0 0 0
-2.2680058 -5.9220963 4.5241609 17.5 0 0 0 0
-2.0075002 -5.8619003 4.5149879 28.608604 0 0 0 0
-1.6191858 -5.8984327 4.5235386 17.462324 0 0 0 0
-1.4703987 -5.8191571 4.5182486 16.5 0 0 0 0
0.24666113 -5.7566175 4.5132637 27 0 0 0 0
0.45441523 -5.7677231 4.5099669 29.402714 0 0 0 0
0.7256605 -5.8298717 4.5077801 30.272242 0 0 0 0
1.0610182 -5.7433338 4.5091105 30.711233 0 0 0 0
1.3291848 -5.9023705 4.5080657 29.000647 0 0 0 0
1.5754938 -5.7972116 4.5099277 30.636391 0 0 0 0
1.8661401 -5.8301592 4.5099454 31.719269 0 0 0 0
2.2742875 -5.8610864 4.5073595 32.051769 0 0 0 0
2.4729111 -5.7848501 4.5097685 31.640055 0 0 0 0
2.770586 -5.7764492 4.5063181 31.884964 0 0 0 0
3.0753596 -5.7521667 4.5017796 22.382812 0 0 0 0
3.4229908 -5.7762752 4.5068321 24 0 0 0 0
3.6163864 -5.8555393 4.5078316 26 0 0 0 0
-2.3609824 -5.600771 4.5034962 32 0 0 0 0
-1.906446 -5.5362816 4.5381746 6.9775572 0 0 0 0
-1.6046095 -5.4579124 4.5305347 2.7768991 0 0 0 0
-1.4205065 -5.5383496 4.5144076 11.289623 0 0 0 0
0.20602645 -5.4747791 4.512444 26 0 0 0 0
0.38001239 -5.5832205 4.5132542 28.957649 0 0 0 0
0.76635146 -5.4707441 4.516757 26.693001 0 0 0 0
1.1114848 -5.6536846 4.5083771 30.561718 0 0 0 0
1.4027306 -5.5271349 4.5055008 29.295446 0 0 0 0
1.6958611 -5.5451307 4.5080729 30.880497 0 0 0 0
1.9497501 -5.6357918 4.5044422 27.996311 0 0 0 0
2.1672127 -5.6460142 4.5100174 29.746534 0 0 0 0
2.5096765 -5.6373053 4.5117869 28.325371 0 0 0 0
2.7755327 -5.5113864 4.5078249 28.41452 0 0 0 0
3.1424108 -5.5638618 4.5042124 26.880533 0 0 0 0
3.4302254 -5.5562878 4.5024061 20 0 0 0 0
-3.8071923 -5.2296576 4.5227823 0 0 0 0 0
-2.792423 -5.3065166 4.5346656 0 0 0 0 0
-2.5642192 -5.1924257 4.5371227 1 0 0 0 0
-1.9678746 -5.2382936 4.5168333 12.403564 0 0 0 0
-1.5367206 -5.1622925 4.5131845 36.048531 0 0 0 0
-1.3940132 -5.2100039 4.5134382 16.689922 0 0 0 0
0.2354888 -5.1973391 4.5098209 31.833334 0 0 0 0
0.46483502 -5.2314525 4.5076213 35.957432 0 0 0 0
0.65945613 -5.1609521 4.5081601 32.851433 0 0 0 0
1.0082836 -5.2749848 4.506752 32.364872 0 0 0 0
1.2735872 -5.2778568 4.5054865 30.6726 0 0 0 0
1.6622406 -5.3820653 4.5039864 28 0 0 0 0
1.9624931 -5.2975683 4.5026259 31.5 0 0 0 0
2.2516618 -5.229547 4.5015392 29.328125 0 0 0 0
2.5763717 -5.1859131 4.5041027 30.796062 0 0 0 0
2.7460608 -5.3031611 4.5081882 31.330397 0 0 0 0
3.3121524 -5.3778501 4.5026336 29 0 0 0 0
-3.3692048 -4.8664479 4.5038157 20 0 0 0 0
-3.0448208 -4.8278193 4.5002923 22 0 0 0 0
-2.2009761 -4.9618464 4.5009446 32 0 0 0 0
-1.8660743 -4.9908514 4.5062656 26.125 0 0 0 0
-1.6354116 -5.0090609 4.5098333 31.161694 0 0 0 0
-1.2789435 -4.8771944 4.5077696 34.85173 0 0 0 0
-0.2368264 -4.8114877 4.5020499 37 0 0 0 0
0.44581184 -5.0348763 4.5053029 36.055859 0 0 0 0
0.65803713 -4.88064 4.5032845 37.27211 0 0 0 0
1.0637991 -5.0105753 4.5057983 35.268749 0 0 0 0
1.268388 -5.0105648 4.5066872 30.935871 0 0 0 0
1.6225818 -4.9902172 4.5021114 28 0 0 0 0
2.0971174 -5.0609856 4.5054717 29 0 0 0 0
2.2321916 -4.9309483 4.5013618 34.489582 0 0 0 0
2.4972034 -4.9944725 4.5019689 29.858723 0 0 0 0
2.8217795 -5.0211072 4.5008855 35.375 0 0 0 0
-3.155309 -4.6072731 4.5123062 9.5 0 0 0 0
-2.6248403 -4.6196451 4.5628204 0 0 0 0 0
-1.9790808 -4.7330351 4.5110645 15 0 0 0 0
-1.559238 -4.603868 4.5090923 27.579716 0 0 0 0
-1.2972938 -4.6837292 4.5110583 14.374737 0 0 0 0
-1.1548264 -4.5673928 4.5087075 31.999592 0 0 0 0
0.16048899 -4.7509103 4.5055876 37.5 0 0 0 0
0.46163213 -4.6014152 4.5020514 37.453484 0 0 0 0
0.68134248 -4.5695448 4.5045338 33.73653 0 0 0 0
1.0190833 -4.5528202 4.5016613 38.083702 0 0 0 0
1.3372197 -4.5989108 4.5052195 34.32711 0 0 0 0
1.5458493 -4.7309413 4.5121908 27 0 0 0 0
2.3633089 -4.7094917 4.5048828 27 0 0 0 0
-4.5641422 -4.2466884 4.5064149 0 0 0 0 0
-3.6426992 -4.2009354 4.500792 1 0 0 0 0
-3.0229139 -4.2363634 4.5057502 19.5 0 0 0 0
-2.9256272 -4.2459297 4.5093031 13 0 0 0 0
-2.2666197 -4.3756447 4.510808 12.75 0 0 0 0
-1.9703373 -4.4057388 4.5094428 26.375 0 0 0 0
-1.6269844 -4.350563 4.5138006 10.610352 0 0 0 0
-1.3188202 -4.4188013 4.5351992 7.8654099 0 0 0 0
-1.1545776 -4.2778125 4.5112605 17.112999 0 0 0 0
0.21005988 -4.2343421 4.5021257 30.5 0 0 0 0
0.36234069 -4.4375281 4.5037613 28.378929 0 0 0 0
0.74849188 -4.3690329 4.5051866 32.323498 0 0 0 0
1.0758948 -4.402288 4.5070972 34.8125 0 0 0 0
1.3296149 -4.3676672 4.5049977 34.589287 0 0 0 0
-3.6330702 -3.9575746 4.586967 0 0 0 0 0
-3.1428733 -4.1055136 4.5087013 22.3125 0 0 0 0
-2.9252129 -4.0034308 4.5331736 4.708333 0 0 0 0
-2.5787587 -4.0501652 4.5451584 0 0 0 0 0
-2.3614552 -4.1150041 4.5328312 0 0 0 0 0
-1.9972885 -4.0251203 4.5129538 14.230556 0 0 0 0
-1.7000626 -4.1223812 4.5077596 9.8416672 0 0 0 0
-1.2903168 -4.1140838 4.5222554 16.906921 0 0 0 0
-1.1255801 -4.0702028 4.5101171 16.147985 0 0 0 0
0.17701572 -4.0061569 4.5106983 20.204544 0 0 0 0
0.57828295 -4.1325521 4.5024433 37.318642 0 0 0 0
0.66255611 -4.095438 4.5037589 36.551094 0 0 0 0
1.0378227 -4.0758696 4.5016794 37.108604 0 0 0 0
1.2877336 -3.9867868 4.5012465 37.517834 0 0 0 0
-5.4941454 -3.6004002 4.5113606 0 0 0 0 0
-4.2935858 -3.8921852 4.5336237 1 0 0 0 0
-4.0473194 -3.7544985 4.5158262 1.5 0 0 0 0
-3.4523253 -3.6975014 4.5132275 3.0625 0 0 0 0
-3.1637259 -3.6539698 4.5035672 13.072917 0 0 0 0
-2.9489284 -3.754734 4.546391 1 0 0 0 0
-2.5197265 -3.7442496 4.5053668 20 0 0 0 0
-2.1973917 -3.8777626 4.5029078 3 0 0 0 0
-1.8608862 -3.693928 4.5168142 12.6875 0 0 0 0
-1.3401152 -3.7744114 4.505888 36.278408 0 0 0 0
-1.0576999 -3.7934783 4.5073242 29.674049 0 0 0 0
0.45089978 -3.8557539 4.5032063 31.446875 0 0 0 0
0.77704859 -3.7850637 4.5030265 35.484375 0 0 0 0
1.1429889 -3.8505685 4.5024023 39.191154 0 0 0 0
1.2396908 -3.7910051 4.5023365 38.425697 0 0 0 0
-5.1796494 -3.4055564 4.5081301 1 0 0 0 0
-4.7494621 -3.3415902 4.5455861 0 0 0 0 0
-3.7104719 -3.4935927 4.5064278 0.7590332 0 0 0 0
-3.551259 -3.550678 4.5151463 3.96875 0 0 0 0
-3.2387557 -3.3285613 4.5181618 12.625 0 0 0 0
-2.898196 -3.5645318 4.5249844 7 0 0 0 0
-1.8591863 -3.58495 4.5079708 23.674999 0 0 0 0
-1.5711764 -3.4053931 4.5111427 15.5 0 0 0 0
-1.3250209 -3.517627 4.5124311 15.633513 0 0 0 0
-1.142679 -3.4761684 4.5106525 18.5 0 0 0 0
-4.6303225 -3.0305026 4.5339279 2 0 0 0 0
-4.4735842 -3.0416875 4.5056958 0 0 0 0 0
-4.0532627 -3.1976223 4.5317602 6.5 0 0 0 0
-3.7729597 -3.0842705 4.5369682 2.4345143 0 0 0 0
-3.4758348 -3.2261105 4.5289912 1.8924824 0 0 0 0
-3.2428694 -3.2559142 4.5301075 2.8125 0 0 0 0
-2.9082339 -3.2278464 4.5039644 1 0 0 0 0
-4.3498936 -2.9932685 4.5059566 1 0 0 0 0
-3.998385 -2.8851779 4.5311284 2 0 0 0 0
-3.8128057 -2.9854751 4.5137711 7.1109467 0 0 0 0
-3.3970888 -2.9160514 4.5120144 19.5 0 0 0 0
-3.2407937 -2.9372435 4.5036545 2.3888888 0 0 0 0
-2.6739914 -2.8879755 4.5218868 1.5 0 0 0 0
-2.3127809 -2.8996837 4.5147576 12 0 0 0 0
-1.901423 -2.9827011 4.5005774 0 0 0 0 0
-1.7180719 -2.911026 4.5006294 32 0 0 0 0
2.7315702 -2.9131711 4.5030923 14 0 0 0 0
-3.17979 -2.1131656 4.5138617 4 0 0 0 0
-4.1248856 -1.989223 4.5284414 0.125 0 0 0 0
-3.7535555 -1.9048873 4.5223002 3.25 0 0 0 0
-3.5486989 -1.9458008 4.5197186 10 0 0 0 0
-2.9237773 -2.0530221 4.5287795 10 0 0 0 0
-3.6909933 -1.7735382 4.5156536 1 0 0 0 0
-3.4871366 -0.94001269 4.5071354 11 0 0 0 0
-3.2522588 -1.0631218 4.5369778 0 0 0 0 0
-5.3591108 -0.51861107 4.5325828 0 0 0 0 0
-5.0367398 -0.5237003 4.5189919 0 0 0 0 0
-3.1140757 1.8986571 4.5102825 0 0 0 0 0
-4.9371667 2.1076488 4.5143476 0 0 0 0 0
-3.5893173 2.190105 4.5226293 0 0 0 0 0
-4.0507975 2.4736311 4.5140543 0 0 0 0 0
-4.3479824 2.8020296 4.5099621 0.5 0 0 0 0
7.1863117 13.75176 4.661809 32.773438 0 0 0 0
7.3085461 13.647177 4.6678238 34.066574 0 0 0 0
7.578074 13.621103 4.5670567 34.757084 0 0 0 0
7.9039993 13.634372 4.6778107 3.1338768 0 0 0 0
7.1710253 13.982025 4.6974621 22.0644 0 0 0 0
7.264823 13.826024 4.6337938 28.184658 0 0 0 0
7.1438427 14.248586 4.6086287 9.1890049 0 0 0 0
-14.601009 29.696625 4.7728224 16 0 0 0 0
-14.363569 29.672077 4.6731949 13.5 0 0 0 0
-14.259789 29.833168 4.6016631 17 0 0 0 0
-13.971548 29.918453 4.7271085 14 0 0 0 0
-13.821667 30.142633 4.5738521 9 0 0 0 0
-13.758487 30.088089 4.7327948 8.25 0 0 0 0
6.2136488 35.636658 4.5686126 10 0 0 0 0
6.3897238 35.653294 4.5502186 14 0 0 0 0
7.0054393 36.148804 4.5358477 19.5 0 0 0 0
7.2958455 36.245064 4.61378 15 0 0 0 0
7.7933259 36.273682 4.5441947 13 0 0 0 0
7.9200268 36.222404 4.5663314 14.769043 0 0 0 0
8.1722174 36.177853 4.6189342 11.86263 0 0 0 0
7.1283927 36.394676 4.7766848 18.628906 0 0 0 0
7.3491392 36.360008 4.6110616 10.696777 0 0 0 0
7.687295 36.3736 4.6411657 12.484375 0 0 0 0
7.8866949 36.335796 4.5915232 14.5625 0 0 0 0
8.2668734 36.418518 4.655941 10 0 0 0 0
8.4489031 36.558819 4.5810738 18 0 0 0 0
9.0496273 36.588219 4.5402145 15 0 0 0 0
8.6241913 36.828289 4.6782098 15.375 0 0 0 0
8.7970047 36.745438 4.6657543 15.043945 0 0 0 0
9.1687565 36.69384 4.6801157 13.979166 0 0 0 0
9.3627148 36.673073 4.6647649 15.5 0 0 0 0
9.6687937 36.779488 4.752017 13 0 0 0 0
10.09398 36.656418 4.795958 12 0 0 0 0
6.1904221 37.172031 4.5301242 14.5 0 0 0 0
8.8150425 36.954235 4.5821304 14.25 0 0 0 0
9.2022915 37.005722 4.5626969 13.0625 0 0 0 0
9.3365517 37.011456 4.6678276 11 0 0 0 0
9.7275476 37.001472 4.6607504 10.75 0 0 0 0
10.018738 36.987114 4.6301041 12.875 0 0 0 0
5.9630418 37.37653 4.5655441 14 0 0 0 0
6.1081791 37.270309 4.6169243 15.625 0 0 0 0
6.3405333 37.240509 4.7168169 12.5 0 0 0 0
9.0748806 37.257278 4.5106339 14 0 0 0 0
-14.39149 37.75103 4.6664515 13 0 0 0 0
5.9623027 38.661285 4.7901316 15 0 0 0 0
9.5865908 39.39262 4.6430259 16 0 0 0 0
7.1770773 13.717588 4.8978386 28.8125 0 0 0 0
7.3449774 13.644828 4.9882479 29.327868 0 0 0 0
7.5654397 13.629169 4.8663049 30.890072 0 0 0 0
7.8657613 13.634045 4.8633242 9.3476505 0 0 0 0
7.1817513 13.995354 5.0151076 22.772005 0 0 0 0
7.262764 13.836578 4.9097548 30.903885 0 0 0 0
7.5153065 13.812578 5.0061188 20.5 0 0 0 0
7.1406908 14.201509 4.9176722 10.443045 0 0 0 0
13.59204 21.228971 5.0200047 7 0 0 0 0
-13.770672 28.371964 5.098032 9 0 0 0 0
-14.513412 29.659954 4.8952522 15.5 0 0 0 0
-14.568579 29.700184 5.0006604 19 0 0 0 0
-14.242806 29.720942 4.8613715 20 0 0 0 0
-13.909927 30.041285 4.9883804 12.75 0 0 0 0
14.848823 31.30113 4.8462663 11 0 0 0 0
-4.2573152 32.819466 5.043119 25 0 0 0 0
